0.979042,0.977443,0.975613,0.973546,0.971176,0.968727,0.965764,0.962696,0.959412,0.955874,0.952082,0.948084,0.944053,0.93975,0.93551,0.931578,0.928536,0.926389,0.925592,0.925254,0.9257,0.926323,0.927435,0.928664,0.929999,0.931409,0.932828,0.934061,0.935359,0.936818,0.93834,0.939925,0.94177,0.943686,0.945201,0.946857,0.948891,0.951213,0.953801,0.956817,0.959955,0.962539,0.965034,0.967203,0.969548,0.972031,0.975035,0.978151,0.97838,0.977006,0.970832,0.96425,0.957279,0.950634,0.944164,0.938733,0.933514,0.929063,0.925132,0.92173,0.916624,0.911003,0.9051,0.900102,0.89797,0.896994,0.897209,0.89765,0.898176,0.898374,0.898647,0.899183,0.900328,0.902105,0.902746,0.903007,0.901372,0.899801,0.898482,0.897558,0.897027,0.896094,0.895031,0.893804,0.89265,0.891735,0.890937,0.890261,0.889545,0.888821,0.888476,0.888215,0.888205,0.888281,0.888443,0.888699,0.888984,0.889356,0.889745,0.890173,0.890613,0.891064,0.891609,0.892181,0.892887,0.893664,0.894634,0.895992,0.897737,0.900016,0.90245,0.905365,0.90823,0.910859,0.912913,0.914391,0.913952,0.912882,0.90939,0.905905,0.902567,0.899134,0.89561,0.891831,0.887995,0.885587,0.883614,0.882963,0.883526,0.885299,0.88846,0.892067,0.894164,0.896103,0.897528,0.898712,0.899668,0.900546,0.901392,0.901883,0.902263,0.902297,0.902226,0.902037,0.902412,0.902972,0.904018,0.905114,0.906323,0.907522,0.908702,0.910259,0.911924,0.913377,0.914528,0.914748,0.914037,0.912393,0.909212,0.905536,0.896347,0.888256,0.883618,0.881194,0.880985,0.881028,0.881159,0.880383,0.879694,0.879294,0.879003,0.87883,0.878773,0.878757,0.878864,0.878984,0.879145,0.879257,0.879321,0.879323,0.879304,0.879236,0.879189,0.879205,0.879252,0.879326,0.879439,0.879565,0.87983,0.880216,0.88097,0.882033,0.88342,0.884382,0.885207,0.882766,0.879124,0.872058,0.866147,0.861394,0.861723,0.863775,0.867813,0.870682,0.870005,0.867002,0.861683,0.857859,0.854571,0.855447,0.856831,0.859659,0.861363,0.86192,0.860704,0.858898,0.857041,0.855422,0.854567,0.853782,0.853067,0.85186,0.850491,0.848642,0.846992,0.845954,0.845304,0.845055,0.84482,0.844593,0.844371,0.844225,0.844307,0.844442,0.844634,0.8448,0.844956,0.845101,0.845297,0.845643,0.846091,0.846645,0.847057,0.847417,0.846926,0.846374,0.845649,0.845119,0.844779,0.844605,0.844486,0.844409,0.844389,0.844541,0.844727,0.844945,0.844931,0.844843,0.844606,0.844601,0.845269,0.845894,0.846446,0.845455,0.843933,0.841519,0.839478,0.838604,0.837299,0.835604,0.833103,0.83035,0.830328,0.830453,0.830991,0.830961,0.830326,0.829252,0.828036,0.828664,0.830042,0.83357,0.837957,0.843129,0.844418,0.844347,0.842787,0.841577,0.841386,0.84157,0.842163,0.842789,0.843424,0.84404,0.844662,0.845283,0.845867,0.846412,0.84684,0.847225,0.847476,0.847736,0.848018,0.848356,0.848748,0.849341,0.849998,0.851319,0.852804,0.854707,0.856275,0.857472,0.859389,0.861528,0.86473,0.867851,0.870682,0.872966,0.87474,0.876032,0.877154,0.87718,0.876716,0.874807,0.872049,0.868451,0.866374,0.864847,0.864556,0.86416,0.863487,0.862423,0.860931,0.859454,0.857985,0.856406,0.854734,0.85285,0.851133,0.849622,0.848155,0.846719,0.845529,0.844233,0.842658,0.840866,0.838867,0.83694,0.835053,0.833137,0.83125,0.829502,0.827839,0.826267,0.82492,0.823662,0.822883,0.822538,0.82348,0.824828,0.826576,0.827656,0.828495,0.830401,0.833728,0.841151,0.85045,0.861619,0.866848,0.870049,0.86964,0.869402,0.869682
0.973912,0.972224,0.970257,0.968013,0.965496,0.962909,0.959794,0.956623,0.953375,0.949807,0.945918,0.941841,0.937738,0.933516,0.929434,0.925888,0.923156,0.921228,0.920494,0.92017,0.920428,0.9208,0.921504,0.922406,0.923507,0.924821,0.926194,0.92753,0.928949,0.930574,0.932081,0.933473,0.935,0.936558,0.937367,0.938293,0.939538,0.940873,0.942325,0.943941,0.945594,0.946368,0.947035,0.947349,0.948348,0.950064,0.953869,0.95834,0.959532,0.958985,0.953289,0.947096,0.940409,0.934486,0.92887,0.925225,0.921814,0.919224,0.916563,0.913751,0.90849,0.902462,0.896866,0.892332,0.891065,0.890711,0.891293,0.89146,0.89148,0.891031,0.891007,0.892275,0.89456,0.897821,0.899137,0.899795,0.897332,0.895008,0.89316,0.892109,0.891856,0.891375,0.890822,0.890034,0.889281,0.888655,0.888096,0.8876,0.88706,0.886512,0.886336,0.886222,0.886299,0.886439,0.886642,0.886903,0.887183,0.887514,0.887855,0.888217,0.888581,0.888949,0.889396,0.889865,0.890424,0.891068,0.891952,0.893265,0.895011,0.89736,0.899891,0.903002,0.906042,0.908787,0.910743,0.911914,0.91083,0.908996,0.904813,0.900766,0.897234,0.893731,0.890264,0.886847,0.883475,0.881539,0.879918,0.87927,0.879504,0.880638,0.882906,0.88553,0.888454,0.89127,0.893706,0.895637,0.897031,0.898043,0.898923,0.899231,0.899418,0.899242,0.898885,0.898346,0.898457,0.898785,0.89974,0.900732,0.901807,0.902814,0.903748,0.905193,0.906797,0.908123,0.909136,0.909184,0.908279,0.906427,0.90349,0.900212,0.892566,0.88574,0.881529,0.879053,0.878316,0.877734,0.877205,0.876285,0.875564,0.875462,0.875497,0.875662,0.875879,0.876112,0.876357,0.876603,0.876845,0.877023,0.877137,0.877161,0.877154,0.877071,0.876991,0.876924,0.87685,0.876773,0.876657,0.876529,0.876597,0.876904,0.877915,0.879126,0.880552,0.880937,0.880965,0.877679,0.873573,0.867176,0.861851,0.857558,0.857147,0.858055,0.861237,0.863426,0.862623,0.860278,0.856364,0.85376,0.851627,0.852185,0.853025,0.854658,0.855483,0.855525,0.854186,0.852392,0.850374,0.848579,0.847479,0.846603,0.845957,0.845206,0.844425,0.843564,0.842808,0.842392,0.84223,0.842309,0.842318,0.842304,0.842305,0.842358,0.842567,0.842792,0.843035,0.843209,0.843357,0.843498,0.843695,0.844057,0.844556,0.845191,0.845685,0.846128,0.845601,0.844972,0.844057,0.843351,0.842856,0.842593,0.842411,0.842285,0.842209,0.842282,0.842386,0.842525,0.842318,0.841995,0.841377,0.840833,0.840516,0.840208,0.839924,0.839163,0.838246,0.836748,0.835611,0.835566,0.835229,0.834605,0.83329,0.831753,0.8309,0.830061,0.829291,0.828409,0.827412,0.826182,0.824885,0.824853,0.825297,0.827136,0.829439,0.832223,0.833253,0.83368,0.834346,0.83513,0.836247,0.837342,0.838408,0.839311,0.840152,0.840812,0.841475,0.842126,0.842739,0.843315,0.843741,0.844114,0.844323,0.844543,0.844788,0.845105,0.845496,0.846018,0.846579,0.847564,0.848496,0.849229,0.84933,0.848837,0.849292,0.850055,0.852952,0.856032,0.859572,0.862844,0.865845,0.868354,0.870677,0.87137,0.871502,0.869963,0.867686,0.864648,0.861974,0.859455,0.857477,0.85549,0.853529,0.851389,0.84908,0.847412,0.845975,0.845707,0.845442,0.845202,0.844667,0.843821,0.842864,0.841881,0.840909,0.83983,0.838458,0.836824,0.834935,0.833178,0.831479,0.829725,0.828,0.826409,0.824928,0.823554,0.822377,0.821277,0.820511,0.820084,0.820673,0.821855,0.823636,0.825155,0.826569,0.827287,0.828989,0.833532,0.842067,0.854643,0.861125,0.865485,0.865333,0.86532,0.865721
0.968626,0.966928,0.964872,0.962461,0.959914,0.957344,0.954137,0.950892,0.947619,0.944085,0.940287,0.936295,0.932274,0.928346,0.924635,0.921667,0.919292,0.917501,0.916297,0.915308,0.914955,0.914805,0.915277,0.916064,0.917169,0.91851,0.919917,0.921441,0.922995,0.924594,0.925982,0.927162,0.928145,0.929056,0.929281,0.929573,0.930063,0.930363,0.930502,0.930457,0.930362,0.9294,0.928288,0.926787,0.926642,0.927884,0.931476,0.935825,0.933692,0.930355,0.923595,0.917268,0.911379,0.907999,0.905471,0.905841,0.906516,0.908012,0.908249,0.907147,0.902752,0.897287,0.892386,0.888323,0.886843,0.885585,0.884573,0.883246,0.881833,0.881684,0.88231,0.885227,0.889029,0.893677,0.895246,0.89577,0.893024,0.890419,0.888305,0.887172,0.887023,0.886848,0.886663,0.886334,0.88603,0.8858,0.885517,0.885172,0.884799,0.884419,0.884363,0.88436,0.884513,0.884712,0.884957,0.885233,0.885517,0.885816,0.886119,0.886426,0.886725,0.887017,0.887376,0.887755,0.888199,0.888753,0.889621,0.890832,0.89239,0.894525,0.896837,0.899526,0.90219,0.904716,0.906456,0.907416,0.906284,0.904458,0.900765,0.897122,0.893716,0.889897,0.885674,0.881566,0.877537,0.875614,0.87395,0.873096,0.872611,0.872512,0.87377,0.875477,0.879993,0.884452,0.888599,0.891672,0.893643,0.894556,0.895109,0.894997,0.894825,0.894485,0.894137,0.893779,0.893975,0.894356,0.895445,0.89659,0.897869,0.899002,0.899984,0.901361,0.90286,0.903369,0.903587,0.902944,0.901724,0.899934,0.89753,0.894935,0.889652,0.884778,0.881206,0.878515,0.87671,0.875161,0.873716,0.872662,0.871898,0.872018,0.87229,0.872708,0.873216,0.873748,0.874133,0.874495,0.874772,0.874972,0.875094,0.875091,0.875047,0.874918,0.874771,0.874579,0.87438,0.874179,0.873928,0.873665,0.873597,0.873777,0.874698,0.875422,0.875963,0.875457,0.874608,0.871492,0.867998,0.863479,0.859624,0.856393,0.855562,0.855553,0.857087,0.858082,0.857483,0.856146,0.854042,0.852587,0.85136,0.851195,0.851113,0.85129,0.851128,0.850651,0.849413,0.847926,0.846392,0.844876,0.84344,0.842293,0.841442,0.840732,0.840072,0.839758,0.839558,0.839696,0.839997,0.840449,0.840705,0.840892,0.841008,0.841151,0.841371,0.841563,0.841728,0.841809,0.841862,0.841928,0.842065,0.842411,0.842938,0.843646,0.84423,0.844765,0.844288,0.843665,0.842627,0.841859,0.841364,0.84105,0.840801,0.84064,0.840501,0.840433,0.840395,0.840392,0.840124,0.839769,0.839041,0.838266,0.837375,0.836524,0.835728,0.834861,0.833977,0.832996,0.832191,0.831917,0.831459,0.830818,0.829651,0.828315,0.827521,0.826756,0.826099,0.825363,0.824543,0.823542,0.822488,0.822222,0.822361,0.823698,0.825397,0.827472,0.828447,0.82904,0.830186,0.831443,0.832987,0.834342,0.835503,0.836444,0.837304,0.837996,0.838679,0.839312,0.8399,0.840443,0.84082,0.841139,0.841268,0.841406,0.841567,0.841788,0.842071,0.842479,0.842925,0.843259,0.84333,0.842624,0.841278,0.839331,0.838466,0.83798,0.839381,0.841115,0.843819,0.847277,0.851484,0.855851,0.86022,0.862039,0.863132,0.862009,0.860582,0.858827,0.856539,0.854095,0.850889,0.847766,0.844994,0.842561,0.840476,0.839535,0.838981,0.839797,0.840563,0.84114,0.841231,0.840818,0.840251,0.839636,0.838544,0.837293,0.835607,0.833734,0.831681,0.829933,0.828304,0.826672,0.825069,0.823593,0.82225,0.821035,0.820022,0.819084,0.818388,0.817955,0.818312,0.819296,0.820912,0.822585,0.82426,0.824843,0.825861,0.828139,0.834815,0.845939,0.852915,0.858421,0.859329,0.860256,0.861192
0.963227,0.961461,0.95933,0.956833,0.95425,0.951661,0.948456,0.945202,0.941889,0.938379,0.934672,0.930834,0.926988,0.923412,0.920062,0.917477,0.915288,0.913495,0.911912,0.910414,0.909657,0.909167,0.909482,0.91015,0.911172,0.912435,0.913766,0.915244,0.916696,0.918023,0.919061,0.919812,0.920262,0.920605,0.920595,0.920585,0.920578,0.920254,0.919613,0.918752,0.917826,0.916147,0.914286,0.911939,0.911053,0.911627,0.913979,0.916899,0.911958,0.906449,0.899397,0.893554,0.88892,0.887598,0.887405,0.890337,0.893505,0.89729,0.899116,0.898983,0.895461,0.890833,0.886724,0.883165,0.881335,0.87932,0.877121,0.874899,0.872689,0.872757,0.873695,0.877185,0.881136,0.885547,0.886864,0.887123,0.885042,0.883209,0.882189,0.881895,0.882325,0.882557,0.882725,0.88273,0.882762,0.882876,0.882852,0.88269,0.882502,0.882306,0.882387,0.882508,0.882745,0.883009,0.8833,0.883596,0.88389,0.884164,0.884436,0.884692,0.884928,0.885144,0.885409,0.885687,0.885993,0.886421,0.8872,0.888212,0.889456,0.890901,0.892395,0.893816,0.895314,0.896974,0.898305,0.899305,0.898986,0.898231,0.895635,0.892849,0.889588,0.885593,0.880866,0.876305,0.871841,0.870044,0.868506,0.867788,0.866858,0.865718,0.86572,0.866101,0.871705,0.877359,0.883016,0.887121,0.889675,0.890581,0.890926,0.890621,0.890263,0.889761,0.88933,0.888968,0.889136,0.889479,0.890737,0.89208,0.893647,0.894926,0.895916,0.896742,0.897502,0.896416,0.89522,0.893713,0.892289,0.890951,0.889394,0.887782,0.884346,0.881001,0.878027,0.87538,0.873059,0.871119,0.869327,0.868498,0.867988,0.868445,0.869025,0.869729,0.870515,0.871323,0.871863,0.872351,0.872677,0.872916,0.873066,0.873051,0.87298,0.872814,0.872607,0.872285,0.871966,0.871649,0.87131,0.870966,0.870648,0.870497,0.870836,0.87083,0.870478,0.869357,0.867986,0.865406,0.862699,0.859697,0.856993,0.854585,0.853468,0.852796,0.853003,0.853011,0.852423,0.851665,0.850737,0.850039,0.849424,0.848849,0.848245,0.847572,0.846875,0.846154,0.845129,0.844012,0.842921,0.841729,0.84027,0.839078,0.838152,0.837496,0.836937,0.837017,0.837196,0.837664,0.838221,0.838866,0.839268,0.839584,0.83974,0.839908,0.840113,0.840267,0.840371,0.840379,0.840354,0.84035,0.840407,0.840641,0.841051,0.841638,0.842128,0.842579,0.842222,0.841724,0.840823,0.840171,0.839766,0.839494,0.83927,0.839084,0.838897,0.838709,0.83854,0.838391,0.838056,0.837662,0.836889,0.836006,0.834826,0.83368,0.832566,0.831578,0.83064,0.829891,0.829179,0.828593,0.827864,0.826992,0.825834,0.824588,0.823892,0.823252,0.822802,0.82231,0.821775,0.821105,0.820398,0.820068,0.820045,0.820932,0.8221,0.823549,0.824535,0.825356,0.826923,0.828543,0.830273,0.831703,0.832832,0.833771,0.834637,0.835351,0.836043,0.836652,0.837202,0.837694,0.83801,0.838263,0.838308,0.838357,0.838414,0.838516,0.838661,0.838907,0.839184,0.839037,0.838536,0.836997,0.834918,0.832299,0.830817,0.829732,0.830162,0.830973,0.832885,0.836043,0.840448,0.845158,0.849923,0.851468,0.852292,0.850925,0.84987,0.849125,0.847694,0.84605,0.842801,0.839667,0.836973,0.834836,0.833255,0.832997,0.833189,0.83464,0.836012,0.837106,0.837654,0.837655,0.837512,0.837322,0.836108,0.834676,0.832628,0.83048,0.828234,0.826493,0.824937,0.823558,0.822188,0.820888,0.819696,0.818614,0.817739,0.816942,0.816306,0.815868,0.816032,0.81682,0.818232,0.819976,0.821815,0.822492,0.82315,0.823734,0.828367,0.837049,0.844176,0.85071,0.852934,0.854981,0.856461
0.957704,0.955775,0.953591,0.951148,0.948522,0.945857,0.94281,0.939656,0.936273,0.932773,0.929156,0.925587,0.922069,0.918935,0.915927,0.913387,0.911103,0.909072,0.907257,0.905528,0.90473,0.904203,0.904494,0.905036,0.905827,0.906835,0.907904,0.908941,0.90989,0.910535,0.910847,0.910807,0.910741,0.910661,0.911014,0.911263,0.91121,0.910934,0.910437,0.910174,0.909999,0.909353,0.908471,0.906948,0.905982,0.905572,0.90497,0.904269,0.897462,0.890821,0.884799,0.880454,0.877824,0.877756,0.878566,0.88153,0.884515,0.887479,0.888744,0.888295,0.885649,0.882302,0.879135,0.876133,0.873728,0.871199,0.868531,0.866417,0.86451,0.864652,0.865323,0.867546,0.869396,0.870815,0.871015,0.870793,0.870973,0.871686,0.874051,0.876104,0.877907,0.878724,0.879209,0.879326,0.879506,0.879868,0.88008,0.880149,0.880175,0.880188,0.880431,0.880697,0.881029,0.881367,0.881712,0.882036,0.88235,0.882613,0.882865,0.883076,0.883253,0.883395,0.883555,0.883717,0.883848,0.884092,0.884659,0.88531,0.886035,0.885991,0.885669,0.884413,0.883419,0.883134,0.883737,0.885207,0.887137,0.889236,0.888743,0.887571,0.884484,0.880543,0.875752,0.871138,0.866625,0.865142,0.864019,0.864013,0.863093,0.861258,0.859597,0.857987,0.8638,0.869897,0.876689,0.881642,0.884778,0.885831,0.886176,0.886066,0.885815,0.885154,0.884489,0.883812,0.883756,0.883907,0.885391,0.88701,0.888999,0.890457,0.891389,0.890857,0.889818,0.885846,0.882207,0.879556,0.878115,0.877883,0.877701,0.877556,0.875049,0.872528,0.870071,0.867892,0.866004,0.864642,0.863477,0.863477,0.863718,0.864697,0.865702,0.866744,0.86779,0.86883,0.869542,0.870178,0.870574,0.870877,0.871089,0.871085,0.871008,0.870821,0.870564,0.870107,0.869674,0.869262,0.868909,0.868579,0.867826,0.866994,0.865932,0.864796,0.863556,0.86228,0.861003,0.859567,0.857934,0.855803,0.853724,0.851713,0.850534,0.849643,0.849098,0.848464,0.847558,0.846677,0.845819,0.845213,0.8447,0.844258,0.843804,0.843328,0.842841,0.842347,0.841729,0.84108,0.840352,0.839561,0.838617,0.83775,0.836967,0.836393,0.835896,0.836101,0.836359,0.836773,0.837245,0.837772,0.838148,0.838471,0.838535,0.838621,0.838766,0.838875,0.838947,0.838913,0.838843,0.838778,0.83872,0.838684,0.838738,0.838874,0.838964,0.839032,0.838913,0.838739,0.838417,0.838171,0.83801,0.837936,0.837894,0.8377,0.837485,0.837218,0.836936,0.836637,0.836228,0.835784,0.835077,0.834296,0.833316,0.83228,0.83119,0.830057,0.828917,0.827909,0.82689,0.825858,0.824616,0.823151,0.821769,0.820424,0.819886,0.819458,0.819371,0.819285,0.81921,0.819042,0.818852,0.818749,0.818805,0.819339,0.820099,0.821074,0.822184,0.823332,0.825212,0.827008,0.828511,0.829708,0.830593,0.83146,0.832312,0.833025,0.833709,0.834285,0.834779,0.835188,0.835421,0.835592,0.835549,0.835497,0.835416,0.835358,0.835319,0.835326,0.835346,0.835017,0.834435,0.833114,0.831474,0.829527,0.828605,0.828044,0.82842,0.829011,0.830223,0.832284,0.835166,0.837684,0.840029,0.838923,0.837422,0.834694,0.833225,0.833005,0.833211,0.833581,0.832305,0.831046,0.829943,0.829068,0.828455,0.828811,0.829498,0.830808,0.832073,0.833161,0.833889,0.834262,0.834598,0.834923,0.833588,0.831954,0.829472,0.826993,0.824508,0.822767,0.821292,0.820383,0.819433,0.818404,0.817388,0.816388,0.815611,0.814916,0.814318,0.813878,0.813921,0.814518,0.815664,0.817337,0.819171,0.820331,0.821177,0.821074,0.823362,0.827977,0.834672,0.842009,0.845952,0.849421,0.851446
0.952236,0.950173,0.947924,0.945489,0.942835,0.940134,0.937129,0.934023,0.930695,0.927323,0.923914,0.920635,0.91743,0.914605,0.911847,0.909366,0.907064,0.904945,0.903073,0.901301,0.900468,0.899872,0.899999,0.900338,0.900879,0.901592,0.902355,0.902929,0.903348,0.90329,0.902982,0.902409,0.902105,0.901897,0.902533,0.902945,0.902684,0.90222,0.901538,0.901247,0.901086,0.900626,0.899989,0.898823,0.897822,0.896988,0.895104,0.89289,0.886422,0.880381,0.875822,0.87288,0.871589,0.872021,0.873023,0.875195,0.877279,0.879023,0.879567,0.878888,0.877091,0.874942,0.872466,0.869899,0.867136,0.864372,0.861612,0.859758,0.858227,0.858311,0.858672,0.859848,0.860213,0.859752,0.859191,0.8586,0.860537,0.8632,0.867964,0.8718,0.874735,0.875861,0.876365,0.876374,0.876506,0.876995,0.877386,0.877683,0.877929,0.878158,0.878553,0.878958,0.879385,0.879795,0.880192,0.880544,0.880879,0.881132,0.881365,0.881533,0.881654,0.881726,0.881774,0.881815,0.881755,0.881797,0.882138,0.882311,0.882299,0.880594,0.878324,0.874675,0.871547,0.870019,0.870293,0.872374,0.875989,0.880091,0.88075,0.880547,0.877778,0.874155,0.869695,0.865325,0.861025,0.859557,0.858529,0.858833,0.85808,0.85628,0.854109,0.851838,0.857379,0.863352,0.870436,0.875718,0.879186,0.880527,0.881144,0.881182,0.881006,0.880199,0.879232,0.878091,0.87767,0.877494,0.879223,0.881053,0.883138,0.884532,0.885223,0.883539,0.881066,0.875057,0.869609,0.86597,0.864317,0.864638,0.8653,0.866073,0.864679,0.863217,0.861609,0.860193,0.859,0.858406,0.858021,0.858798,0.859743,0.86117,0.862545,0.863878,0.86514,0.866367,0.867238,0.868016,0.868496,0.868868,0.869134,0.869162,0.86911,0.868927,0.868652,0.868116,0.867601,0.867109,0.866696,0.866314,0.865228,0.863899,0.861883,0.860007,0.858265,0.856938,0.855761,0.854949,0.85391,0.852229,0.850495,0.848708,0.847439,0.846353,0.845305,0.844242,0.843159,0.842224,0.841437,0.840917,0.840492,0.840178,0.839868,0.839581,0.839302,0.839035,0.838739,0.838437,0.837997,0.837523,0.836964,0.836377,0.835766,0.835327,0.834949,0.835196,0.835466,0.835795,0.836164,0.836569,0.83692,0.83725,0.837284,0.837332,0.837423,0.837491,0.837536,0.83748,0.83739,0.837303,0.837189,0.836997,0.836811,0.836629,0.836445,0.836263,0.836314,0.83636,0.836389,0.836418,0.836449,0.836507,0.836574,0.836372,0.836128,0.835767,0.835372,0.834941,0.834452,0.833948,0.833252,0.832508,0.831636,0.830669,0.829605,0.828412,0.827185,0.826046,0.824874,0.823636,0.822198,0.820567,0.819154,0.817827,0.817345,0.816993,0.817037,0.817136,0.817286,0.817406,0.817515,0.817571,0.817692,0.818006,0.818489,0.819139,0.820289,0.821597,0.823584,0.825424,0.82677,0.827819,0.828568,0.829363,0.830166,0.830863,0.831526,0.832064,0.832497,0.832822,0.832973,0.833062,0.832941,0.832798,0.832599,0.832389,0.832164,0.831935,0.831705,0.831216,0.830584,0.829539,0.828358,0.827055,0.826731,0.826742,0.82735,0.828042,0.828972,0.830216,0.831763,0.83223,0.832318,0.82899,0.825605,0.82211,0.820421,0.82054,0.821556,0.822861,0.822551,0.822309,0.822267,0.822293,0.822397,0.823192,0.824212,0.82543,0.826617,0.827684,0.828714,0.829721,0.831314,0.833105,0.83258,0.831379,0.828246,0.824972,0.821517,0.819285,0.817485,0.817004,0.816482,0.815854,0.815094,0.814214,0.813549,0.812964,0.812437,0.812025,0.81197,0.812386,0.813268,0.814782,0.816494,0.818009,0.819093,0.818863,0.81957,0.821199,0.827022,0.834197,0.839358,0.843889,0.846433
0.946745,0.944581,0.942252,0.939761,0.937105,0.934419,0.931297,0.928161,0.925061,0.921997,0.918961,0.916001,0.913096,0.910405,0.907768,0.905365,0.903164,0.901161,0.899479,0.897922,0.897064,0.896357,0.896125,0.896135,0.896396,0.896756,0.897142,0.89721,0.89706,0.896259,0.895472,0.89471,0.894563,0.894629,0.895449,0.895887,0.895195,0.894182,0.892861,0.891651,0.890478,0.889037,0.887597,0.886158,0.885189,0.884691,0.88391,0.883061,0.880001,0.877039,0.874561,0.87292,0.872081,0.871939,0.872016,0.872228,0.872389,0.872343,0.871907,0.871108,0.870119,0.869094,0.866985,0.864673,0.86184,0.859258,0.85692,0.855539,0.854495,0.854339,0.854324,0.854734,0.854504,0.853648,0.852819,0.852006,0.855053,0.858827,0.864685,0.869505,0.873261,0.874305,0.874415,0.874003,0.873812,0.874263,0.874753,0.875278,0.875755,0.876212,0.87675,0.877287,0.877811,0.878296,0.87874,0.879122,0.87948,0.879722,0.879937,0.880067,0.880133,0.880136,0.880067,0.879972,0.879693,0.879508,0.879601,0.879108,0.878049,0.874437,0.869973,0.864247,0.85949,0.857654,0.85819,0.861091,0.865578,0.870564,0.871095,0.870931,0.868687,0.865784,0.862203,0.858495,0.854781,0.852912,0.851526,0.851595,0.851252,0.850486,0.84945,0.848344,0.852937,0.857981,0.864208,0.869048,0.872513,0.874345,0.875622,0.875747,0.875602,0.874664,0.873282,0.871467,0.870481,0.869779,0.871789,0.873738,0.875476,0.876438,0.876635,0.874097,0.87065,0.863712,0.857367,0.852932,0.850771,0.850897,0.851649,0.852608,0.852621,0.852548,0.85226,0.852071,0.851946,0.852385,0.853018,0.854527,0.856109,0.857889,0.859564,0.861126,0.862544,0.863901,0.864917,0.86583,0.866415,0.866865,0.867175,0.867266,0.867281,0.867135,0.866887,0.866347,0.865798,0.865242,0.864707,0.864181,0.862893,0.861322,0.858946,0.856895,0.855172,0.853936,0.852875,0.851983,0.850854,0.849055,0.847256,0.84546,0.844063,0.842809,0.841587,0.840398,0.83933,0.838441,0.837729,0.837285,0.836935,0.836743,0.836571,0.836463,0.836394,0.836358,0.836265,0.836156,0.835905,0.835628,0.835284,0.834918,0.834523,0.834291,0.834117,0.834293,0.834477,0.834677,0.834914,0.835189,0.835514,0.835855,0.835941,0.836016,0.836058,0.836091,0.836117,0.836067,0.835992,0.835937,0.835847,0.835654,0.835395,0.835072,0.834795,0.834537,0.834671,0.83479,0.834865,0.834982,0.835137,0.835233,0.835307,0.835098,0.83482,0.834347,0.833836,0.833292,0.832716,0.832135,0.831376,0.830579,0.829691,0.82873,0.827697,0.826564,0.825408,0.824311,0.823201,0.822085,0.820923,0.819706,0.818535,0.817389,0.816819,0.816353,0.816212,0.816169,0.816228,0.81633,0.816447,0.816572,0.816735,0.817011,0.817407,0.817927,0.818993,0.820235,0.822048,0.823742,0.825026,0.826047,0.826805,0.827529,0.828232,0.828892,0.829514,0.830006,0.830371,0.83061,0.830677,0.830684,0.830494,0.830278,0.829987,0.829631,0.829214,0.82875,0.828273,0.82765,0.827011,0.826327,0.825649,0.824965,0.825291,0.82596,0.827206,0.828448,0.829665,0.830491,0.830938,0.829551,0.827536,0.822509,0.817864,0.814403,0.812777,0.812986,0.81363,0.814404,0.813695,0.813248,0.813562,0.813969,0.814458,0.815443,0.816586,0.817771,0.818925,0.819952,0.821476,0.823484,0.827449,0.83207,0.833675,0.833818,0.829729,0.82494,0.819493,0.816079,0.81338,0.813284,0.813199,0.813154,0.812781,0.812071,0.811542,0.81108,0.81067,0.810328,0.810209,0.810454,0.811068,0.812298,0.813722,0.815424,0.81681,0.817217,0.817449,0.817519,0.82182,0.827495,0.833215,0.838291,0.84133
0.941064,0.938772,0.936328,0.933733,0.931161,0.92862,0.92565,0.922696,0.919853,0.917051,0.91429,0.911568,0.908882,0.906329,0.903827,0.901543,0.899457,0.89757,0.896033,0.894626,0.893739,0.892946,0.892459,0.892223,0.892238,0.892325,0.892436,0.892189,0.891728,0.890642,0.889752,0.889057,0.888968,0.889082,0.889506,0.889521,0.888349,0.886893,0.885153,0.883352,0.88155,0.87933,0.877199,0.87541,0.874209,0.873595,0.873245,0.872993,0.871893,0.870768,0.869585,0.86878,0.868354,0.868214,0.868164,0.867773,0.867318,0.866647,0.865954,0.865241,0.864691,0.8642,0.862367,0.860341,0.857778,0.855551,0.85366,0.852587,0.851795,0.851451,0.85115,0.850996,0.850454,0.849524,0.84872,0.84796,0.85156,0.855833,0.862006,0.867026,0.870892,0.871784,0.871673,0.87115,0.870906,0.871486,0.872167,0.872947,0.873661,0.874342,0.875018,0.87568,0.876285,0.876833,0.877325,0.877729,0.878099,0.878331,0.87853,0.87863,0.878651,0.878594,0.878417,0.878203,0.877744,0.877332,0.877078,0.876058,0.874274,0.869782,0.86442,0.85816,0.852968,0.851055,0.85136,0.853883,0.857573,0.861654,0.861832,0.861573,0.860016,0.857989,0.855491,0.852481,0.849313,0.846847,0.844877,0.844471,0.844295,0.844348,0.844266,0.844129,0.847893,0.851975,0.856941,0.860754,0.863413,0.865153,0.866583,0.867296,0.867757,0.8674,0.866235,0.864263,0.863017,0.862022,0.86394,0.865741,0.867162,0.867772,0.867572,0.864615,0.860758,0.853869,0.847535,0.842982,0.840672,0.840605,0.841413,0.842509,0.84349,0.844408,0.845092,0.845778,0.846466,0.847642,0.848966,0.850975,0.853,0.855009,0.856876,0.8586,0.86015,0.861625,0.862734,0.863741,0.864413,0.864926,0.865281,0.865447,0.865546,0.865413,0.865177,0.864639,0.864057,0.863433,0.862742,0.862037,0.86058,0.858865,0.856429,0.854401,0.852781,0.851631,0.850648,0.849644,0.848407,0.846515,0.844681,0.842906,0.841442,0.840094,0.838813,0.83758,0.836516,0.835652,0.834987,0.834582,0.834269,0.834144,0.834052,0.834062,0.834111,0.834199,0.83422,0.834218,0.834092,0.833947,0.833748,0.833538,0.833316,0.833227,0.833182,0.833306,0.833429,0.833544,0.833692,0.833871,0.834158,0.834478,0.834616,0.834729,0.834765,0.834799,0.834831,0.834808,0.834765,0.834732,0.834662,0.83448,0.834221,0.833884,0.833621,0.833382,0.833493,0.833591,0.833655,0.83377,0.833937,0.834031,0.834099,0.833886,0.833591,0.833056,0.832475,0.831847,0.831185,0.83052,0.829694,0.828837,0.827912,0.826941,0.825925,0.824849,0.823761,0.822719,0.821684,0.820691,0.819729,0.8188,0.817836,0.816867,0.816261,0.815741,0.815489,0.81535,0.815325,0.815382,0.815469,0.815615,0.815789,0.816043,0.816391,0.816833,0.81778,0.818891,0.82051,0.822048,0.823304,0.824324,0.825108,0.825803,0.826463,0.827065,0.827628,0.828066,0.828366,0.828526,0.828516,0.82845,0.828205,0.82792,0.827529,0.827034,0.826434,0.82574,0.825024,0.824245,0.823514,0.822953,0.822477,0.822086,0.822507,0.823203,0.824199,0.825152,0.826003,0.8263,0.826043,0.824036,0.821453,0.816521,0.812093,0.809211,0.807816,0.807906,0.807923,0.807925,0.806725,0.805911,0.806284,0.806802,0.807464,0.808469,0.809581,0.810503,0.811424,0.81233,0.814066,0.816634,0.822208,0.828737,0.832265,0.833878,0.8297,0.824366,0.817876,0.813854,0.810697,0.810651,0.810666,0.810869,0.81069,0.810127,0.809715,0.809357,0.809026,0.80873,0.808549,0.808641,0.809009,0.809941,0.81106,0.812744,0.814266,0.815256,0.81554,0.815115,0.817979,0.821932,0.82751,0.832597,0.836099
0.935157,0.932705,0.930104,0.92735,0.924962,0.922722,0.920227,0.9177,0.915145,0.91256,0.90995,0.907365,0.904809,0.902402,0.900051,0.897929,0.89598,0.894207,0.892757,0.891428,0.890506,0.889656,0.889046,0.88865,0.888466,0.88838,0.888329,0.887982,0.887517,0.886712,0.886146,0.885829,0.885674,0.885571,0.884907,0.883974,0.882272,0.880482,0.878597,0.876611,0.874609,0.871825,0.869162,0.866935,0.86519,0.863912,0.863181,0.862644,0.861858,0.861046,0.860176,0.859702,0.859632,0.860186,0.860945,0.861532,0.862011,0.862148,0.862019,0.861641,0.86107,0.860437,0.858781,0.857059,0.855177,0.853516,0.852094,0.851126,0.850317,0.849839,0.84936,0.848898,0.848361,0.84775,0.847311,0.846932,0.850441,0.854484,0.860018,0.864346,0.867449,0.86813,0.867994,0.86772,0.867746,0.868658,0.86964,0.870703,0.871655,0.872561,0.873372,0.874152,0.874815,0.875414,0.875951,0.876368,0.876741,0.876963,0.87715,0.877228,0.877214,0.877109,0.87684,0.87652,0.875923,0.87529,0.874575,0.873171,0.871068,0.866942,0.862177,0.857186,0.852991,0.851284,0.850786,0.851474,0.85243,0.853473,0.853024,0.852518,0.851835,0.850888,0.849706,0.847415,0.844765,0.841449,0.838653,0.837483,0.837201,0.837801,0.838431,0.839062,0.842114,0.845225,0.848457,0.85054,0.851428,0.852391,0.853382,0.855291,0.857009,0.858092,0.857875,0.856383,0.855236,0.854213,0.855601,0.856937,0.858082,0.858422,0.857948,0.855102,0.851486,0.845798,0.84054,0.8367,0.834649,0.834394,0.835215,0.836392,0.837856,0.839269,0.840482,0.841669,0.842844,0.844388,0.846039,0.848291,0.850516,0.852599,0.854539,0.85634,0.857991,0.859576,0.86072,0.861768,0.862501,0.863066,0.863464,0.863718,0.863921,0.863775,0.863531,0.863003,0.86239,0.861691,0.860812,0.85988,0.858286,0.856546,0.854414,0.852637,0.851221,0.850149,0.849201,0.848044,0.846677,0.844727,0.842892,0.841174,0.839717,0.838359,0.837155,0.835976,0.834904,0.834042,0.833388,0.832979,0.832657,0.832535,0.832456,0.832505,0.832569,0.83265,0.832678,0.832689,0.832612,0.832519,0.832378,0.832255,0.83215,0.832124,0.832125,0.832219,0.832311,0.832395,0.832501,0.832628,0.832859,0.833124,0.833312,0.833476,0.833559,0.833635,0.833704,0.83373,0.833742,0.833719,0.833662,0.833505,0.833328,0.833135,0.833008,0.832903,0.832867,0.832835,0.832815,0.832828,0.83287,0.832915,0.832961,0.832748,0.832452,0.831921,0.831318,0.830645,0.829899,0.829137,0.82824,0.827315,0.826328,0.825329,0.824317,0.823289,0.822266,0.8213,0.820352,0.819479,0.81864,0.817838,0.817038,0.816245,0.815664,0.815159,0.814889,0.814705,0.814605,0.814586,0.814594,0.814707,0.814856,0.815109,0.815451,0.81588,0.816668,0.817568,0.818964,0.820339,0.82161,0.822659,0.823487,0.824208,0.824886,0.825406,0.825893,0.826268,0.826502,0.826594,0.826518,0.826386,0.826099,0.825756,0.825255,0.824623,0.823855,0.822943,0.821991,0.821024,0.82011,0.81938,0.818767,0.818268,0.818129,0.818111,0.817803,0.817489,0.817183,0.816805,0.816338,0.815192,0.813833,0.811109,0.808643,0.806999,0.80603,0.805748,0.804865,0.803787,0.801972,0.80062,0.800686,0.80101,0.801585,0.802409,0.80331,0.803689,0.80415,0.804838,0.806472,0.809047,0.815278,0.822685,0.827947,0.831103,0.827901,0.823115,0.81676,0.812808,0.809698,0.809309,0.809025,0.809065,0.808863,0.808417,0.808099,0.807826,0.807532,0.807249,0.80701,0.806967,0.807117,0.807744,0.808527,0.809954,0.811412,0.812914,0.813851,0.814243,0.815797,0.817719,0.822325,0.826793,0.830711
0.929007,0.926519,0.923983,0.92139,0.919239,0.91726,0.91508,0.91285,0.910533,0.90818,0.905783,0.903375,0.900987,0.898706,0.89648,0.894476,0.892636,0.890958,0.889576,0.888306,0.887337,0.88642,0.885685,0.885129,0.884758,0.884515,0.884317,0.883961,0.883541,0.882944,0.882539,0.882327,0.881949,0.881518,0.880245,0.878804,0.876906,0.874954,0.872946,0.870778,0.868576,0.865663,0.862857,0.860443,0.858386,0.85669,0.85562,0.854771,0.853946,0.853135,0.852389,0.852107,0.852287,0.853215,0.854387,0.855658,0.856796,0.857517,0.857843,0.857767,0.857317,0.856747,0.855501,0.854232,0.852936,0.851752,0.85067,0.849778,0.848958,0.848346,0.847735,0.847147,0.846645,0.846227,0.84605,0.845955,0.848949,0.852358,0.856886,0.860318,0.862681,0.863449,0.863666,0.863982,0.864558,0.865893,0.86723,0.868558,0.869736,0.870853,0.871781,0.872664,0.873392,0.874047,0.874625,0.875054,0.875429,0.875642,0.875817,0.875876,0.875831,0.875683,0.875328,0.874907,0.874163,0.873337,0.872286,0.870671,0.868493,0.864875,0.860805,0.856603,0.852895,0.850731,0.849301,0.848634,0.848158,0.847744,0.847163,0.846646,0.846329,0.845731,0.844864,0.842541,0.839747,0.836027,0.832881,0.831534,0.83131,0.832203,0.833207,0.834239,0.836762,0.839053,0.840565,0.84077,0.839721,0.839518,0.839591,0.842277,0.844993,0.847763,0.849159,0.849123,0.848569,0.84786,0.848747,0.849575,0.850192,0.850124,0.849385,0.846868,0.843772,0.839392,0.835401,0.832692,0.831263,0.831088,0.831756,0.832705,0.834118,0.835546,0.836979,0.838436,0.839915,0.841677,0.843518,0.845861,0.848167,0.850305,0.852311,0.854183,0.855918,0.857591,0.858802,0.859914,0.8607,0.861309,0.861737,0.86203,0.862273,0.862127,0.861881,0.86134,0.860683,0.859909,0.858892,0.857801,0.856204,0.854525,0.852648,0.851079,0.849815,0.848719,0.847691,0.846404,0.844954,0.843059,0.841296,0.839661,0.838227,0.836875,0.835729,0.834602,0.833562,0.832716,0.832063,0.831639,0.831296,0.831169,0.831083,0.831125,0.831173,0.831229,0.83128,0.831328,0.831306,0.831269,0.831189,0.831132,0.831097,0.831113,0.831145,0.83124,0.831333,0.831417,0.831511,0.831613,0.831808,0.832032,0.832234,0.832416,0.832537,0.832643,0.832734,0.83279,0.832833,0.832818,0.832776,0.832654,0.832536,0.83242,0.832357,0.832312,0.832199,0.832093,0.832008,0.831937,0.83188,0.83187,0.831875,0.831665,0.831378,0.830874,0.830277,0.829584,0.828795,0.827981,0.82705,0.82609,0.82507,0.824052,0.823034,0.822033,0.821047,0.82012,0.819214,0.818397,0.817621,0.816885,0.81619,0.815516,0.814983,0.814508,0.814219,0.814003,0.81386,0.813806,0.813782,0.813891,0.814036,0.814285,0.814614,0.815023,0.815703,0.81647,0.817701,0.818937,0.820154,0.821184,0.822029,0.822728,0.823372,0.823841,0.824273,0.824578,0.824736,0.824748,0.82462,0.824444,0.824119,0.823718,0.823096,0.822328,0.821416,0.820343,0.819224,0.818088,0.816993,0.816045,0.815233,0.814563,0.814117,0.81375,0.81286,0.811971,0.811108,0.810385,0.809802,0.80906,0.808271,0.806511,0.804841,0.803473,0.802395,0.801625,0.80029,0.798774,0.797079,0.795813,0.795851,0.796158,0.796729,0.79747,0.798261,0.798321,0.798469,0.798871,0.799972,0.801795,0.806835,0.81291,0.818011,0.821507,0.820212,0.817501,0.813281,0.810538,0.808342,0.807867,0.807494,0.807432,0.807228,0.806882,0.806641,0.80644,0.806163,0.80588,0.805583,0.805402,0.80534,0.805657,0.806099,0.807239,0.808525,0.81021,0.811586,0.812648,0.813547,0.814387,0.817836,0.821446,0.825437
0.922518,0.920118,0.917865,0.915758,0.913901,0.912151,0.910134,0.908076,0.905954,0.903834,0.901717,0.899536,0.897356,0.895186,0.893062,0.891133,0.889369,0.887769,0.886439,0.885213,0.884182,0.883186,0.882321,0.881613,0.88106,0.880671,0.880338,0.880066,0.879744,0.879288,0.878872,0.878495,0.877739,0.876858,0.87544,0.873924,0.872163,0.870227,0.868118,0.865768,0.863357,0.860748,0.858183,0.855826,0.853708,0.851827,0.85045,0.849252,0.848034,0.846915,0.846106,0.845868,0.846201,0.847189,0.84839,0.850068,0.851607,0.852702,0.853351,0.853552,0.853374,0.853074,0.852483,0.851831,0.851042,0.850219,0.84936,0.848521,0.847698,0.846948,0.846248,0.845712,0.845272,0.844928,0.844914,0.845013,0.847055,0.849398,0.852527,0.854905,0.856532,0.857665,0.858623,0.859886,0.861301,0.863164,0.864889,0.866474,0.867871,0.869194,0.87022,0.871195,0.871999,0.872709,0.873326,0.873766,0.874143,0.874346,0.874511,0.874553,0.874482,0.874295,0.873857,0.873337,0.872435,0.871435,0.870162,0.868521,0.866512,0.863541,0.860282,0.856413,0.852667,0.84937,0.846932,0.845351,0.844708,0.844381,0.844159,0.843877,0.843425,0.842428,0.840884,0.837786,0.834184,0.830491,0.827468,0.826525,0.826522,0.827459,0.828508,0.829586,0.831747,0.833325,0.833084,0.831361,0.828156,0.826347,0.825,0.828064,0.831564,0.83631,0.839901,0.842337,0.842907,0.842865,0.843267,0.84353,0.843352,0.84276,0.841756,0.839778,0.837495,0.834569,0.832063,0.830933,0.830457,0.830634,0.830986,0.831392,0.832218,0.833187,0.834539,0.836018,0.837626,0.839464,0.841363,0.843647,0.845919,0.848097,0.850155,0.852095,0.853898,0.85564,0.856951,0.85815,0.858985,0.859627,0.860075,0.860355,0.860577,0.860445,0.8602,0.859624,0.858911,0.858061,0.856953,0.855768,0.854303,0.852776,0.851111,0.849698,0.848537,0.847321,0.846096,0.8447,0.843211,0.84149,0.839867,0.838342,0.83695,0.835617,0.834515,0.833439,0.832471,0.831655,0.830992,0.830541,0.830165,0.830023,0.829914,0.829902,0.829903,0.829915,0.830002,0.830114,0.830154,0.83018,0.830163,0.83015,0.83014,0.830176,0.830229,0.830356,0.830481,0.830597,0.830707,0.830811,0.830988,0.831187,0.831364,0.831535,0.831685,0.831809,0.831907,0.831971,0.832024,0.832016,0.831991,0.831916,0.831827,0.831725,0.831656,0.831598,0.831479,0.831355,0.831219,0.831086,0.830955,0.83088,0.830825,0.830621,0.830352,0.829902,0.829334,0.828648,0.827855,0.827033,0.826103,0.825142,0.824117,0.823088,0.822056,0.821061,0.820087,0.81916,0.818254,0.81743,0.816654,0.815924,0.81528,0.81467,0.814207,0.813778,0.813466,0.813233,0.813079,0.813031,0.813019,0.813154,0.813317,0.813558,0.813868,0.814247,0.814875,0.815579,0.816697,0.817818,0.818912,0.819876,0.820711,0.821342,0.821898,0.822345,0.82274,0.822971,0.823045,0.822963,0.822792,0.822592,0.822235,0.821774,0.821015,0.820119,0.819084,0.817902,0.81668,0.815388,0.814107,0.81289,0.811826,0.810917,0.810415,0.810052,0.809288,0.808499,0.807665,0.806944,0.806336,0.805538,0.804684,0.802669,0.800637,0.79859,0.796872,0.795485,0.794135,0.792807,0.791973,0.791412,0.791701,0.792172,0.792824,0.793577,0.794357,0.79431,0.794287,0.794326,0.794491,0.794783,0.796765,0.799262,0.8023,0.804988,0.806582,0.807365,0.807336,0.807001,0.806607,0.806303,0.806046,0.805942,0.805758,0.805494,0.80532,0.805178,0.8049,0.8046,0.804244,0.803929,0.803654,0.803652,0.803738,0.804554,0.805564,0.80711,0.808686,0.810291,0.811206,0.811885,0.81396,0.816476,0.8202
0.916381,0.914323,0.912413,0.91066,0.908962,0.907299,0.905397,0.903471,0.901527,0.89961,0.897726,0.895743,0.893743,0.891697,0.889695,0.887876,0.8862,0.884672,0.883397,0.882218,0.881169,0.880139,0.879189,0.878381,0.877714,0.877205,0.876755,0.876476,0.876164,0.87576,0.875298,0.874775,0.873867,0.872836,0.871431,0.869952,0.868288,0.866431,0.864385,0.862063,0.859667,0.857297,0.854949,0.852727,0.850672,0.848788,0.847275,0.845903,0.844669,0.843546,0.842768,0.842495,0.842723,0.84351,0.844483,0.846065,0.847545,0.848698,0.849484,0.849901,0.850023,0.85004,0.849912,0.849706,0.849265,0.848685,0.847971,0.847128,0.846251,0.845419,0.844669,0.844192,0.843825,0.84357,0.843638,0.843815,0.845218,0.846832,0.849038,0.85084,0.852233,0.853619,0.854989,0.856747,0.858618,0.860771,0.862745,0.864543,0.866089,0.867538,0.868636,0.869692,0.870593,0.871362,0.872003,0.872451,0.872831,0.873032,0.873192,0.873229,0.873145,0.87294,0.872445,0.871856,0.870839,0.869701,0.868235,0.866479,0.864428,0.861511,0.858335,0.854252,0.850186,0.846314,0.843412,0.84148,0.840442,0.839727,0.838965,0.838165,0.837316,0.836006,0.834226,0.831397,0.828219,0.825464,0.823289,0.822827,0.822954,0.82367,0.824629,0.82566,0.827522,0.828747,0.828072,0.826121,0.822928,0.821012,0.819542,0.822231,0.82544,0.830123,0.833979,0.836973,0.837937,0.838203,0.838261,0.838166,0.837628,0.836817,0.835734,0.834247,0.832629,0.830802,0.829331,0.828921,0.828765,0.828856,0.828929,0.828994,0.829619,0.830466,0.831951,0.833582,0.835367,0.837308,0.839283,0.841537,0.843794,0.846005,0.848105,0.850095,0.851951,0.853746,0.855156,0.856444,0.857332,0.858018,0.858503,0.858786,0.858998,0.858857,0.858598,0.857996,0.857253,0.856371,0.855235,0.854025,0.852592,0.85113,0.849627,0.848277,0.847081,0.845817,0.84454,0.843146,0.841697,0.84012,0.8386,0.837138,0.835763,0.83443,0.833356,0.832311,0.831375,0.830571,0.829897,0.829436,0.82905,0.828878,0.828738,0.828696,0.828669,0.828658,0.828793,0.828976,0.829062,0.829129,0.82914,0.829156,0.829178,0.829253,0.829346,0.829528,0.829704,0.829855,0.829981,0.830083,0.830237,0.830407,0.830568,0.83073,0.830889,0.831024,0.831135,0.831219,0.831292,0.831277,0.831251,0.83119,0.831114,0.831022,0.830942,0.830867,0.830747,0.830616,0.830455,0.830284,0.830104,0.829962,0.829835,0.829598,0.829313,0.828897,0.828364,0.827715,0.826945,0.826141,0.8252,0.824231,0.823209,0.822187,0.821165,0.820175,0.819205,0.818292,0.817402,0.816604,0.815856,0.81516,0.814565,0.814009,0.813572,0.813162,0.812843,0.812605,0.812446,0.812389,0.812367,0.812492,0.81264,0.812853,0.813127,0.813462,0.814022,0.814653,0.815602,0.816532,0.817382,0.818158,0.818853,0.819459,0.820025,0.82058,0.821058,0.821288,0.821347,0.821235,0.821021,0.820776,0.820372,0.81985,0.818994,0.817986,0.816823,0.81555,0.814251,0.812889,0.81151,0.810115,0.80892,0.807924,0.807528,0.807333,0.806737,0.806085,0.805273,0.804423,0.803527,0.802326,0.801042,0.798754,0.796425,0.79405,0.792083,0.790525,0.789309,0.788216,0.787979,0.787917,0.788363,0.788915,0.789575,0.790407,0.791285,0.791606,0.791919,0.792177,0.792146,0.791839,0.79212,0.792608,0.79424,0.796134,0.798786,0.801088,0.803036,0.803973,0.804559,0.804467,0.804395,0.804378,0.804285,0.80412,0.804008,0.803915,0.803655,0.803357,0.802955,0.802532,0.802086,0.801815,0.801608,0.802108,0.802822,0.804161,0.805745,0.807568,0.808755,0.809707,0.810834,0.81245,0.815485
0.910545,0.909033,0.907526,0.906016,0.904357,0.902666,0.900838,0.899009,0.897226,0.895491,0.893797,0.891983,0.890145,0.888237,0.886373,0.884688,0.883116,0.881653,0.880433,0.879305,0.878277,0.87725,0.876252,0.87539,0.874664,0.874061,0.873505,0.873145,0.872765,0.87234,0.871801,0.87115,0.870284,0.869352,0.868097,0.866746,0.865146,0.863424,0.861576,0.85946,0.857271,0.855088,0.852931,0.850907,0.849027,0.847288,0.84579,0.844387,0.843457,0.842588,0.841917,0.841538,0.841454,0.841823,0.842344,0.843399,0.844433,0.845382,0.846147,0.846728,0.847164,0.847545,0.847731,0.847814,0.847583,0.847152,0.846516,0.845621,0.844646,0.843776,0.843015,0.8426,0.842318,0.842164,0.842244,0.842402,0.843414,0.844604,0.846291,0.847919,0.849492,0.851031,0.852545,0.854427,0.856415,0.858662,0.860771,0.86274,0.864376,0.865885,0.867036,0.86816,0.869175,0.870009,0.87066,0.871114,0.871498,0.871701,0.871864,0.871904,0.87182,0.871612,0.871083,0.870451,0.869351,0.868108,0.866476,0.864526,0.862262,0.858893,0.855187,0.850417,0.84581,0.841826,0.838925,0.837105,0.835498,0.833983,0.831903,0.829962,0.828508,0.826951,0.825297,0.823609,0.821916,0.820895,0.820153,0.820229,0.82041,0.820693,0.821446,0.822349,0.823956,0.825158,0.825134,0.824434,0.823025,0.822297,0.821802,0.823465,0.825464,0.828414,0.830859,0.832836,0.833547,0.833823,0.833649,0.833381,0.832846,0.832075,0.831068,0.830016,0.828954,0.827952,0.827099,0.826697,0.826317,0.825965,0.825792,0.82568,0.826427,0.827443,0.829233,0.831132,0.833133,0.835199,0.837267,0.839514,0.841773,0.844013,0.846145,0.84817,0.850066,0.8519,0.853409,0.854785,0.855731,0.856473,0.857009,0.857305,0.857518,0.857349,0.857063,0.856441,0.855691,0.854813,0.853705,0.852529,0.851043,0.849572,0.848186,0.84682,0.845475,0.844225,0.843017,0.84172,0.840374,0.838919,0.837472,0.836033,0.834652,0.833303,0.832245,0.831212,0.830276,0.829466,0.828783,0.828325,0.827948,0.827733,0.827557,0.827504,0.827467,0.827448,0.82764,0.827901,0.82802,0.828111,0.828119,0.828153,0.828212,0.82834,0.82849,0.828748,0.828991,0.82918,0.829322,0.829416,0.829545,0.829684,0.829836,0.829988,0.830139,0.83028,0.83041,0.830521,0.830625,0.830592,0.830549,0.830475,0.830396,0.830311,0.830216,0.83012,0.830004,0.829876,0.829711,0.829525,0.829317,0.829106,0.828897,0.828592,0.828261,0.827863,0.82737,0.826783,0.826059,0.825296,0.824333,0.82335,0.822339,0.821338,0.820345,0.819361,0.818389,0.817501,0.816643,0.815895,0.815201,0.814561,0.814014,0.813503,0.813057,0.812641,0.812331,0.812096,0.811939,0.81186,0.811809,0.811893,0.811999,0.812167,0.81239,0.812668,0.81315,0.813697,0.814425,0.815102,0.815613,0.81609,0.816541,0.817154,0.817815,0.818591,0.81925,0.81954,0.819643,0.819555,0.8193,0.81899,0.818526,0.817944,0.817024,0.815916,0.814623,0.813274,0.81192,0.810559,0.809156,0.807664,0.806438,0.80548,0.805325,0.805441,0.805055,0.804564,0.803769,0.802671,0.801277,0.799388,0.797354,0.79477,0.792211,0.7898,0.787916,0.786556,0.7856,0.784789,0.784939,0.785186,0.785708,0.786273,0.786883,0.787846,0.788917,0.790018,0.791091,0.792041,0.792455,0.79232,0.792103,0.791864,0.792615,0.793734,0.79593,0.798069,0.800155,0.801356,0.802247,0.802406,0.802572,0.80275,0.802812,0.802756,0.802703,0.802652,0.802426,0.802146,0.801707,0.801197,0.800618,0.800128,0.799673,0.799856,0.800266,0.801344,0.802768,0.80454,0.806201,0.807805,0.808319,0.809215,0.811227
0.904985,0.903722,0.902422,0.901083,0.899606,0.898092,0.896448,0.894801,0.893181,0.891594,0.890037,0.888354,0.886643,0.88493,0.883255,0.881728,0.880275,0.878891,0.877673,0.876522,0.875574,0.874625,0.873693,0.872866,0.87214,0.871485,0.870859,0.870389,0.869907,0.869403,0.86881,0.868127,0.867345,0.866534,0.865448,0.864266,0.862823,0.861254,0.859554,0.857569,0.855505,0.85336,0.851232,0.849218,0.847373,0.845701,0.844266,0.842921,0.842146,0.841428,0.840896,0.840549,0.840383,0.840565,0.840863,0.841597,0.842354,0.843164,0.843905,0.844579,0.845183,0.845757,0.846006,0.846145,0.845956,0.84551,0.844809,0.843885,0.842894,0.842099,0.841427,0.841133,0.840958,0.840901,0.841006,0.841165,0.841946,0.84289,0.844295,0.845761,0.847293,0.848852,0.850405,0.852344,0.854381,0.856648,0.858788,0.860802,0.862466,0.863998,0.865241,0.866459,0.867566,0.868467,0.869159,0.869661,0.870094,0.870319,0.870505,0.870567,0.870493,0.870282,0.86973,0.869069,0.86791,0.866603,0.864894,0.862731,0.86012,0.856317,0.852152,0.847091,0.842242,0.838153,0.835003,0.832805,0.830545,0.828294,0.825787,0.823549,0.822162,0.820974,0.819963,0.819338,0.818835,0.818589,0.818418,0.818471,0.818478,0.818445,0.818961,0.81966,0.820929,0.821993,0.822429,0.822571,0.822405,0.822538,0.822764,0.823828,0.825063,0.826788,0.828244,0.829452,0.829917,0.830131,0.829879,0.829547,0.828985,0.828271,0.827402,0.826589,0.825802,0.82501,0.824281,0.823769,0.823285,0.822831,0.822697,0.822667,0.823565,0.824752,0.826759,0.828851,0.831026,0.833205,0.835363,0.837634,0.839921,0.842192,0.844362,0.846431,0.848438,0.850404,0.851969,0.853382,0.854304,0.855028,0.855554,0.855837,0.856037,0.855835,0.855526,0.854912,0.854185,0.853343,0.852249,0.851079,0.849509,0.847941,0.846424,0.84496,0.843555,0.842285,0.841074,0.839939,0.838783,0.837583,0.836277,0.83486,0.833528,0.832235,0.831179,0.830144,0.829204,0.828387,0.827695,0.827227,0.826838,0.826621,0.826437,0.826356,0.826314,0.826311,0.826521,0.8268,0.826895,0.826978,0.827025,0.827108,0.827224,0.827406,0.827608,0.827907,0.828188,0.828403,0.828563,0.828665,0.828791,0.828923,0.829072,0.829226,0.829386,0.829534,0.829671,0.829802,0.829929,0.829909,0.829878,0.829815,0.829736,0.82964,0.829542,0.829444,0.829323,0.829186,0.829008,0.828799,0.828561,0.828284,0.827999,0.827632,0.827249,0.82683,0.826351,0.825812,0.825117,0.824376,0.823433,0.822473,0.821481,0.820495,0.819514,0.818556,0.817615,0.816765,0.815946,0.815239,0.814583,0.813978,0.813455,0.812965,0.812525,0.812118,0.81182,0.81159,0.811427,0.811339,0.811278,0.811323,0.81139,0.811522,0.811706,0.811944,0.812333,0.812772,0.813285,0.813697,0.813807,0.813939,0.814102,0.814687,0.815409,0.816448,0.817364,0.817881,0.818116,0.818065,0.817764,0.817384,0.816831,0.816151,0.815117,0.813903,0.812511,0.811136,0.809779,0.808414,0.806983,0.805394,0.804054,0.802965,0.802575,0.802431,0.801705,0.800882,0.799815,0.798535,0.797044,0.795264,0.793394,0.791344,0.789332,0.787447,0.785946,0.784812,0.783904,0.783082,0.7832,0.7834,0.783848,0.784313,0.7848,0.785646,0.786608,0.787917,0.789224,0.790493,0.7913,0.791636,0.791704,0.79167,0.792274,0.793156,0.794836,0.796507,0.798186,0.799268,0.800144,0.800514,0.80088,0.801222,0.801415,0.801458,0.801466,0.801461,0.801272,0.801021,0.800589,0.800061,0.799437,0.798826,0.798225,0.798175,0.798344,0.799165,0.800312,0.801795,0.803499,0.805265,0.805809,0.806515,0.80767
0.899545,0.89832,0.897099,0.895882,0.894683,0.8935,0.892124,0.89072,0.889264,0.887807,0.886348,0.884768,0.883163,0.881691,0.880241,0.878891,0.87757,0.876276,0.875023,0.873794,0.872973,0.872155,0.871371,0.870639,0.869957,0.869278,0.868606,0.868005,0.867394,0.866771,0.866137,0.865493,0.864823,0.86415,0.863253,0.862269,0.861054,0.859652,0.858064,0.856159,0.854165,0.851949,0.849736,0.847594,0.845693,0.844032,0.842692,0.841472,0.840748,0.840109,0.839741,0.839518,0.839438,0.839595,0.839831,0.840384,0.840982,0.841698,0.842414,0.84313,0.8438,0.844448,0.844581,0.844613,0.844342,0.843771,0.842901,0.841964,0.841014,0.840378,0.839866,0.839735,0.839687,0.839723,0.839863,0.840037,0.840697,0.841521,0.842812,0.844122,0.845453,0.846934,0.848452,0.850402,0.852438,0.854674,0.856775,0.858741,0.860391,0.861919,0.863285,0.864614,0.865799,0.866769,0.867527,0.868107,0.868622,0.868885,0.869108,0.869206,0.869148,0.868931,0.868364,0.867685,0.866483,0.865141,0.86342,0.861029,0.857967,0.853739,0.849157,0.844085,0.839201,0.83501,0.831443,0.828503,0.825527,0.82257,0.820269,0.818327,0.8175,0.817095,0.817113,0.8175,0.818005,0.81786,0.817654,0.817273,0.816951,0.816685,0.816944,0.817378,0.818242,0.819086,0.819848,0.820577,0.821272,0.822037,0.822816,0.823574,0.82436,0.825214,0.825946,0.826556,0.826783,0.82688,0.826658,0.826337,0.825727,0.825081,0.824397,0.82369,0.82298,0.82196,0.821011,0.8203,0.81979,0.819482,0.819586,0.819828,0.820902,0.82226,0.824422,0.826663,0.828983,0.831265,0.833513,0.835833,0.838165,0.840469,0.842682,0.844802,0.84697,0.849135,0.850729,0.852143,0.852981,0.853636,0.854107,0.854359,0.854536,0.854297,0.853969,0.85338,0.852696,0.851917,0.850827,0.849643,0.847965,0.846237,0.844404,0.842787,0.841385,0.840074,0.838807,0.837885,0.836979,0.836138,0.83502,0.833624,0.832379,0.831196,0.83013,0.829086,0.828136,0.827312,0.826613,0.826123,0.825707,0.825517,0.825343,0.825224,0.825179,0.82521,0.825411,0.825667,0.825696,0.825747,0.825865,0.826018,0.826206,0.826443,0.826694,0.827011,0.827309,0.827543,0.827722,0.827844,0.827982,0.828124,0.828277,0.828438,0.82862,0.828778,0.828913,0.829058,0.829204,0.829218,0.82922,0.829187,0.82911,0.828988,0.828895,0.828811,0.828675,0.828522,0.828324,0.828089,0.827817,0.827477,0.827118,0.826692,0.826252,0.825784,0.8253,0.8248,0.824122,0.82339,0.8225,0.821585,0.82062,0.819646,0.818664,0.817747,0.816861,0.816059,0.815285,0.814612,0.813983,0.813398,0.812883,0.812396,0.811975,0.811587,0.811305,0.811078,0.810905,0.810817,0.810759,0.810766,0.810796,0.810897,0.811051,0.811259,0.811545,0.811857,0.812154,0.812291,0.81195,0.8117,0.811542,0.812073,0.812831,0.814169,0.815399,0.816267,0.816697,0.816689,0.816342,0.815884,0.815219,0.814417,0.813229,0.811902,0.810434,0.809068,0.807747,0.806372,0.804908,0.803224,0.801711,0.800368,0.799408,0.798587,0.797117,0.795615,0.794064,0.792641,0.791345,0.790232,0.78919,0.788283,0.787363,0.786422,0.78551,0.784628,0.783619,0.782576,0.782359,0.782261,0.782524,0.782811,0.783122,0.783676,0.784309,0.785419,0.786591,0.787909,0.789084,0.790115,0.791017,0.791864,0.792847,0.793868,0.79498,0.795971,0.796841,0.797534,0.798163,0.798718,0.799259,0.799743,0.800054,0.800191,0.800261,0.800307,0.800156,0.799943,0.799549,0.799049,0.798443,0.79778,0.797104,0.796878,0.796849,0.797411,0.7982,0.799214,0.800661,0.80224,0.803277,0.804161,0.804571
0.894032,0.892765,0.891708,0.890867,0.890067,0.889291,0.888136,0.886943,0.88567,0.884377,0.883067,0.881653,0.880219,0.878919,0.877618,0.876359,0.875126,0.873921,0.872738,0.871574,0.87081,0.870052,0.869331,0.868624,0.86793,0.867218,0.866507,0.865825,0.865154,0.864528,0.863915,0.863318,0.862751,0.862202,0.861407,0.860532,0.859446,0.858117,0.856545,0.854674,0.85272,0.850523,0.848322,0.846172,0.84428,0.842648,0.841375,0.840233,0.839556,0.838972,0.838687,0.838533,0.838512,0.838684,0.838921,0.839419,0.83995,0.840564,0.841129,0.841638,0.842007,0.842321,0.841908,0.841447,0.84084,0.8402,0.839527,0.839138,0.838854,0.838701,0.838584,0.83859,0.838609,0.838641,0.838791,0.838979,0.839574,0.840307,0.841431,0.842589,0.843775,0.845179,0.846643,0.848499,0.850429,0.852521,0.854541,0.856486,0.858119,0.859632,0.860996,0.862346,0.863617,0.864734,0.8657,0.866432,0.867079,0.867402,0.86768,0.867815,0.867769,0.867542,0.866954,0.866249,0.86508,0.863756,0.862008,0.859465,0.856122,0.851631,0.846793,0.841583,0.836591,0.832379,0.828665,0.825449,0.822291,0.819182,0.81704,0.815289,0.814749,0.814719,0.815203,0.815851,0.816546,0.816412,0.816198,0.815754,0.815391,0.815113,0.81524,0.815501,0.816068,0.816683,0.817422,0.818259,0.81919,0.820162,0.821139,0.821853,0.822522,0.823043,0.823501,0.823897,0.824062,0.824149,0.82392,0.823585,0.822944,0.822302,0.821658,0.820939,0.820199,0.819165,0.818225,0.817591,0.817238,0.817172,0.817486,0.817925,0.819074,0.820475,0.822589,0.824824,0.827178,0.829519,0.831835,0.834151,0.836476,0.838766,0.840969,0.843084,0.84527,0.84746,0.849087,0.850523,0.851348,0.851995,0.852465,0.852728,0.852919,0.852703,0.852404,0.851868,0.851231,0.850495,0.84939,0.848172,0.846307,0.844378,0.842302,0.840459,0.83884,0.837448,0.836145,0.835405,0.834702,0.834134,0.83322,0.831967,0.830876,0.829851,0.828922,0.827983,0.827044,0.82623,0.825541,0.82505,0.82463,0.824438,0.824266,0.824159,0.824113,0.824129,0.824254,0.824413,0.824448,0.824526,0.824728,0.824953,0.825201,0.825477,0.82576,0.826062,0.82635,0.826587,0.826788,0.826953,0.827124,0.827297,0.827459,0.827626,0.827801,0.827956,0.82809,0.828246,0.828408,0.82845,0.828484,0.828494,0.828449,0.828352,0.828263,0.828176,0.828028,0.827861,0.827639,0.82737,0.827053,0.826651,0.826223,0.825736,0.825237,0.824716,0.824188,0.823653,0.822989,0.822287,0.821463,0.820613,0.81971,0.818798,0.81788,0.817021,0.816189,0.815433,0.814696,0.814032,0.813417,0.812849,0.812338,0.811851,0.811423,0.811031,0.810757,0.810534,0.810364,0.810261,0.810181,0.810183,0.810209,0.810309,0.810457,0.810655,0.810863,0.811072,0.811255,0.811279,0.810825,0.810451,0.810157,0.810569,0.811213,0.812538,0.81379,0.814789,0.815316,0.815373,0.815005,0.814497,0.813748,0.812878,0.811671,0.810349,0.808915,0.807542,0.806202,0.804719,0.803145,0.801338,0.799633,0.798024,0.7966,0.795248,0.793436,0.791642,0.789948,0.788535,0.787405,0.786672,0.786082,0.785752,0.785401,0.784998,0.784483,0.783864,0.782993,0.782047,0.781769,0.781598,0.781755,0.781935,0.782135,0.782499,0.782914,0.783782,0.784724,0.785858,0.787008,0.788165,0.789304,0.790426,0.791609,0.792761,0.793788,0.794662,0.795388,0.796043,0.796668,0.79735,0.798011,0.798598,0.798994,0.799201,0.799285,0.799326,0.799186,0.798989,0.798629,0.798169,0.797609,0.796964,0.796296,0.795932,0.79574,0.79606,0.796538,0.797166,0.798274,0.799532,0.800938,0.802043,0.80223
0.888519,0.887162,0.886321,0.886,0.885672,0.885341,0.884377,0.883377,0.882295,0.881186,0.880053,0.878842,0.877617,0.876443,0.875249,0.874026,0.872855,0.871738,0.870689,0.869673,0.868925,0.868183,0.867474,0.86675,0.866011,0.865261,0.864516,0.863784,0.863091,0.862532,0.861978,0.861431,0.860963,0.860526,0.859781,0.858963,0.857947,0.856632,0.855021,0.853156,0.851222,0.849098,0.846968,0.844879,0.843037,0.841444,0.840219,0.839129,0.838495,0.837953,0.8377,0.837583,0.837602,0.837815,0.838089,0.838608,0.839128,0.839637,0.839974,0.840133,0.839981,0.839726,0.838521,0.837336,0.836247,0.835573,0.835312,0.835803,0.836544,0.837059,0.837478,0.837604,0.837652,0.837624,0.837769,0.837971,0.838534,0.839194,0.840124,0.841129,0.842207,0.843533,0.844931,0.846635,0.848395,0.850278,0.852191,0.854133,0.855748,0.857237,0.858526,0.859843,0.861206,0.862514,0.863772,0.864699,0.865505,0.865902,0.866245,0.866417,0.866382,0.866141,0.865527,0.864794,0.863702,0.862426,0.860644,0.857994,0.854474,0.849817,0.84482,0.839399,0.834255,0.830072,0.826373,0.82316,0.820137,0.817206,0.815193,0.813571,0.813154,0.81325,0.813862,0.814323,0.814727,0.814549,0.814342,0.814054,0.813827,0.813665,0.813734,0.813879,0.814216,0.814599,0.815108,0.815764,0.81656,0.817487,0.81845,0.819274,0.820023,0.820531,0.82099,0.821401,0.821609,0.821747,0.821489,0.821127,0.820464,0.819787,0.819097,0.818296,0.817466,0.816541,0.815745,0.815351,0.815266,0.815497,0.816002,0.816593,0.817755,0.819123,0.82107,0.823206,0.825527,0.827901,0.830272,0.832552,0.834839,0.837087,0.83925,0.841326,0.843444,0.845556,0.847219,0.848689,0.849544,0.85022,0.850719,0.851018,0.851247,0.851087,0.850848,0.850378,0.84979,0.849085,0.847955,0.846692,0.844596,0.842441,0.840168,0.838054,0.836092,0.834595,0.833271,0.83269,0.832164,0.831814,0.831115,0.830073,0.829176,0.828336,0.827628,0.826862,0.825946,0.825153,0.824485,0.824005,0.823592,0.823381,0.823205,0.823142,0.823097,0.823069,0.823078,0.823099,0.823182,0.823319,0.823613,0.82391,0.824212,0.824517,0.824821,0.825089,0.82535,0.825582,0.825807,0.826027,0.826245,0.826459,0.826635,0.826806,0.826958,0.827101,0.827234,0.827399,0.827575,0.827641,0.827707,0.827767,0.827774,0.82773,0.827644,0.827545,0.827388,0.827206,0.82696,0.826652,0.826282,0.825818,0.825328,0.824778,0.824219,0.823643,0.823049,0.822435,0.821782,0.821123,0.820372,0.819598,0.818776,0.817956,0.817142,0.816349,0.81557,0.814859,0.814153,0.813484,0.812874,0.812323,0.811814,0.811324,0.810875,0.810467,0.810194,0.809976,0.809815,0.809687,0.809572,0.809588,0.80963,0.809747,0.809905,0.810103,0.810246,0.81037,0.810501,0.810508,0.810143,0.8098,0.80948,0.809733,0.810177,0.811304,0.812407,0.813405,0.813971,0.814104,0.813729,0.813186,0.812372,0.811468,0.81032,0.809076,0.807737,0.80635,0.804958,0.803311,0.801578,0.799635,0.797727,0.795847,0.794024,0.792236,0.790321,0.788465,0.786831,0.785521,0.784537,0.784014,0.78365,0.783556,0.783459,0.78335,0.783115,0.782761,0.782172,0.78151,0.781332,0.781222,0.78132,0.781436,0.781567,0.781801,0.782067,0.782668,0.783326,0.784141,0.785026,0.785974,0.786994,0.78803,0.789307,0.790582,0.791811,0.792909,0.793883,0.794708,0.795474,0.796245,0.796995,0.797659,0.798121,0.798382,0.798452,0.798457,0.79831,0.798115,0.797787,0.797373,0.796877,0.79629,0.795678,0.795203,0.794868,0.794959,0.795155,0.79545,0.796172,0.797033,0.79873,0.800078,0.800354
0.883343,0.882196,0.88168,0.881785,0.881787,0.881752,0.880969,0.880155,0.879274,0.878373,0.877448,0.87641,0.875342,0.874271,0.873168,0.872003,0.870891,0.869829,0.86885,0.867907,0.867143,0.866385,0.865662,0.864925,0.864175,0.863423,0.862677,0.861983,0.861319,0.860763,0.860233,0.859729,0.859262,0.858809,0.857842,0.85675,0.855326,0.853836,0.852287,0.850651,0.849004,0.847205,0.84537,0.84348,0.841769,0.84023,0.839098,0.838113,0.837552,0.837071,0.836842,0.836703,0.836657,0.836818,0.837047,0.837397,0.837655,0.837648,0.837204,0.836351,0.835134,0.833803,0.832149,0.83065,0.82963,0.829457,0.830112,0.831788,0.833798,0.835122,0.836181,0.836449,0.836572,0.836549,0.836712,0.836936,0.837476,0.838089,0.838903,0.839803,0.840791,0.842016,0.843307,0.844835,0.846407,0.848069,0.849715,0.851356,0.852647,0.853808,0.855262,0.856802,0.858549,0.860229,0.86183,0.862981,0.863968,0.864418,0.864791,0.864929,0.864855,0.864571,0.86387,0.863033,0.862019,0.860628,0.85819,0.854557,0.849766,0.844128,0.83826,0.833277,0.828764,0.825741,0.823086,0.820756,0.818281,0.815772,0.814005,0.812582,0.812228,0.812273,0.812722,0.812983,0.813181,0.813047,0.812907,0.81275,0.812635,0.81256,0.812608,0.812697,0.812898,0.813139,0.813489,0.814007,0.814695,0.815539,0.816427,0.81718,0.817845,0.818232,0.818638,0.819066,0.819314,0.819498,0.819156,0.818709,0.817965,0.817187,0.81638,0.815553,0.81473,0.81408,0.813549,0.813388,0.813517,0.81393,0.814582,0.815309,0.816403,0.817682,0.819476,0.821557,0.823928,0.826389,0.828859,0.83117,0.833477,0.835713,0.837875,0.839961,0.84192,0.843814,0.845306,0.846668,0.847592,0.848359,0.848965,0.849352,0.849661,0.849546,0.849346,0.848902,0.848316,0.847588,0.846487,0.845273,0.843124,0.840878,0.838411,0.836031,0.833745,0.832103,0.830695,0.830053,0.829426,0.828869,0.827941,0.826655,0.825828,0.825169,0.825107,0.824921,0.824382,0.823855,0.823329,0.822931,0.82258,0.822387,0.82222,0.822139,0.822049,0.821953,0.821919,0.821907,0.822053,0.822248,0.82258,0.822905,0.823223,0.823581,0.82395,0.824245,0.824529,0.824772,0.825002,0.82522,0.825438,0.825654,0.825821,0.825977,0.8261,0.826228,0.826361,0.826522,0.82669,0.826785,0.826881,0.826981,0.827043,0.827065,0.827007,0.82692,0.826769,0.826587,0.82632,0.82598,0.825568,0.825072,0.824553,0.823952,0.823344,0.822732,0.822104,0.821463,0.820815,0.820172,0.819477,0.818759,0.817996,0.817241,0.816492,0.81575,0.815017,0.814314,0.813621,0.812974,0.812382,0.811844,0.811327,0.81082,0.810362,0.809945,0.809666,0.809449,0.809295,0.809171,0.80906,0.809056,0.809085,0.809209,0.809368,0.80956,0.809661,0.80973,0.809823,0.809839,0.809618,0.809389,0.809148,0.809315,0.809616,0.810478,0.811343,0.81219,0.812682,0.812822,0.812473,0.811962,0.811134,0.810228,0.809117,0.807923,0.806644,0.805242,0.803809,0.802061,0.800244,0.798266,0.796306,0.794362,0.792445,0.790555,0.788724,0.786965,0.785471,0.784269,0.783355,0.782851,0.782488,0.782368,0.782266,0.782214,0.782072,0.781839,0.781452,0.781019,0.780924,0.780872,0.780954,0.781045,0.781148,0.781309,0.781487,0.781891,0.782352,0.78297,0.783666,0.784443,0.785351,0.786295,0.787539,0.788811,0.790124,0.791355,0.792502,0.79348,0.794391,0.795252,0.796078,0.796781,0.797275,0.797561,0.797639,0.797646,0.797504,0.797318,0.797007,0.796627,0.796177,0.795636,0.795068,0.79455,0.794135,0.794042,0.79403,0.794105,0.79453,0.795067,0.796677,0.798042,0.79862
0.878356,0.877577,0.87743,0.877917,0.878181,0.878361,0.87775,0.877122,0.876447,0.875761,0.875063,0.874181,0.873242,0.87226,0.871243,0.870148,0.86909,0.868069,0.867126,0.866218,0.865422,0.86463,0.863878,0.863131,0.862388,0.861651,0.860923,0.860311,0.859702,0.859116,0.858591,0.858127,0.857609,0.857079,0.855756,0.854223,0.852139,0.850381,0.848948,0.84766,0.846426,0.845073,0.84365,0.842037,0.840492,0.839015,0.838,0.837146,0.836672,0.836262,0.836052,0.835864,0.835696,0.835759,0.8359,0.83599,0.835862,0.835119,0.833638,0.831418,0.828846,0.826207,0.824286,0.82267,0.822005,0.822593,0.824435,0.827465,0.830841,0.833027,0.83479,0.835215,0.835434,0.835448,0.835641,0.835892,0.836412,0.836991,0.837729,0.838552,0.83946,0.840567,0.841734,0.843079,0.844452,0.845882,0.847188,0.84837,0.849179,0.849865,0.851601,0.853495,0.855783,0.857914,0.859889,0.86128,0.862455,0.862946,0.863333,0.863401,0.863264,0.862922,0.862098,0.861122,0.860185,0.858606,0.855182,0.850148,0.843504,0.836465,0.829389,0.825159,0.821672,0.820412,0.819293,0.818314,0.816593,0.81462,0.813153,0.811969,0.811647,0.811552,0.811684,0.811743,0.811781,0.811734,0.811691,0.811657,0.811637,0.811633,0.81168,0.811743,0.811859,0.812002,0.812227,0.812635,0.813226,0.813966,0.814751,0.815344,0.81584,0.816049,0.816376,0.816823,0.817108,0.817337,0.816883,0.816323,0.815466,0.814556,0.813592,0.81277,0.812003,0.811706,0.811505,0.811578,0.811884,0.812424,0.813203,0.814054,0.815042,0.816202,0.817846,0.819899,0.822361,0.824939,0.82753,0.829903,0.83226,0.8345,0.83668,0.838801,0.84055,0.842161,0.843382,0.844558,0.845574,0.846459,0.847215,0.847717,0.848126,0.848048,0.847877,0.847439,0.84683,0.846051,0.84501,0.843891,0.841778,0.839511,0.836849,0.834217,0.831614,0.829803,0.82828,0.827468,0.826602,0.825614,0.824237,0.82247,0.821656,0.821172,0.821957,0.822566,0.822592,0.822446,0.822128,0.82185,0.821583,0.821428,0.821278,0.821147,0.820992,0.820814,0.820774,0.820781,0.820999,0.821251,0.821595,0.821924,0.822237,0.822662,0.823119,0.82347,0.823801,0.824065,0.82429,0.824475,0.824671,0.824869,0.825015,0.825148,0.825237,0.825349,0.825482,0.825631,0.825784,0.825906,0.826033,0.826167,0.826284,0.826381,0.826362,0.826302,0.826163,0.825987,0.825702,0.825335,0.824887,0.824373,0.823843,0.823197,0.822547,0.821906,0.821263,0.82062,0.819974,0.819332,0.818683,0.818014,0.8173,0.816591,0.815888,0.81519,0.814499,0.813787,0.813096,0.812486,0.811918,0.811393,0.810859,0.810328,0.809868,0.809448,0.809158,0.808939,0.808792,0.808688,0.808599,0.808558,0.808559,0.808686,0.808841,0.809024,0.809094,0.809125,0.809188,0.809224,0.809178,0.809102,0.808994,0.80911,0.809299,0.809868,0.810449,0.811064,0.811427,0.811539,0.811232,0.810787,0.809971,0.80908,0.807994,0.806834,0.805598,0.80418,0.802714,0.800898,0.799033,0.797071,0.795139,0.793237,0.791383,0.78956,0.787903,0.786325,0.785015,0.783919,0.783035,0.782453,0.781979,0.781702,0.781462,0.781346,0.781196,0.781012,0.78079,0.780555,0.780532,0.780537,0.780623,0.780713,0.780808,0.780924,0.781046,0.781292,0.781597,0.782079,0.782632,0.783255,0.784052,0.784902,0.786052,0.787256,0.788594,0.789905,0.791189,0.792313,0.79337,0.794318,0.795216,0.795938,0.796447,0.796743,0.796839,0.796868,0.796736,0.796561,0.796262,0.795908,0.795497,0.794994,0.794464,0.793939,0.793477,0.793219,0.793046,0.792955,0.793123,0.793381,0.794717,0.795977,0.796968
0.874121,0.873839,0.874057,0.874767,0.875134,0.875384,0.874909,0.874424,0.873926,0.873413,0.872881,0.872113,0.871273,0.870361,0.869413,0.868387,0.867392,0.866429,0.865491,0.864571,0.863719,0.862881,0.862109,0.861351,0.860606,0.85989,0.85919,0.858609,0.858025,0.85745,0.856913,0.856414,0.85552,0.854501,0.852009,0.849414,0.846568,0.844425,0.842994,0.842298,0.841853,0.841347,0.840704,0.839687,0.838625,0.837502,0.836696,0.836008,0.83567,0.835363,0.835159,0.834845,0.834424,0.834188,0.834015,0.83362,0.832966,0.831548,0.829425,0.826607,0.82395,0.821368,0.820067,0.819076,0.819045,0.820123,0.822302,0.825458,0.828914,0.831234,0.833153,0.833837,0.834305,0.834551,0.83482,0.835097,0.835575,0.836105,0.836774,0.837518,0.838342,0.839332,0.840369,0.841551,0.842749,0.843959,0.845039,0.845992,0.846815,0.847584,0.849638,0.851816,0.854306,0.856523,0.858468,0.859835,0.860993,0.861494,0.861873,0.86188,0.861661,0.86122,0.86025,0.859111,0.856939,0.853759,0.84759,0.840404,0.832266,0.825671,0.819643,0.817554,0.816063,0.816412,0.816509,0.816326,0.815106,0.813553,0.812386,0.811422,0.81109,0.810906,0.810874,0.810847,0.81082,0.810829,0.810842,0.810865,0.810889,0.810914,0.810958,0.811007,0.811059,0.81114,0.811307,0.811642,0.812146,0.812687,0.813235,0.813418,0.813558,0.813564,0.813925,0.814638,0.815033,0.81532,0.81478,0.814173,0.813386,0.812568,0.811714,0.811032,0.810414,0.810223,0.810121,0.810283,0.810669,0.811276,0.8121,0.81299,0.814001,0.815202,0.816942,0.819054,0.821539,0.824052,0.826553,0.828799,0.831088,0.833443,0.83569,0.837828,0.839408,0.840786,0.841881,0.842978,0.844048,0.844962,0.84572,0.846205,0.846594,0.846502,0.846322,0.845887,0.845297,0.844553,0.843562,0.842498,0.840485,0.838242,0.835374,0.832544,0.829757,0.827839,0.826231,0.825216,0.823982,0.822103,0.81958,0.816453,0.815293,0.814792,0.81711,0.819128,0.820222,0.820812,0.820875,0.820763,0.820596,0.820495,0.820389,0.820273,0.820125,0.819943,0.819903,0.819911,0.820122,0.820363,0.820686,0.821008,0.821331,0.82183,0.822384,0.822858,0.823286,0.823562,0.823741,0.823825,0.823922,0.824021,0.824138,0.824248,0.824337,0.824462,0.824624,0.82479,0.824957,0.825146,0.825332,0.825509,0.825656,0.825771,0.825772,0.825735,0.825598,0.825415,0.825104,0.824718,0.824259,0.823746,0.82322,0.822585,0.821943,0.821296,0.820641,0.819979,0.819339,0.818712,0.81808,0.817434,0.816764,0.816089,0.815407,0.814712,0.814019,0.813311,0.812625,0.81202,0.811457,0.810935,0.810417,0.809905,0.809477,0.809083,0.808801,0.808579,0.808417,0.80829,0.808176,0.808087,0.808036,0.8081,0.808201,0.808341,0.808426,0.808491,0.808559,0.808616,0.808645,0.80865,0.808632,0.808746,0.808904,0.809316,0.809743,0.810201,0.810465,0.810537,0.810238,0.809815,0.808993,0.8081,0.807023,0.805887,0.804692,0.803272,0.801789,0.79995,0.798077,0.796159,0.794285,0.792451,0.790695,0.788981,0.787458,0.786013,0.784839,0.783823,0.782964,0.782329,0.781774,0.781409,0.781079,0.780863,0.780648,0.780437,0.78028,0.780141,0.780165,0.780218,0.780354,0.780496,0.780642,0.780766,0.780882,0.781043,0.781259,0.781631,0.782091,0.782641,0.783377,0.784167,0.785257,0.786407,0.787703,0.789007,0.790321,0.791514,0.792655,0.793604,0.794493,0.795172,0.795668,0.795982,0.796103,0.796159,0.79604,0.795884,0.795623,0.795293,0.794895,0.794399,0.793876,0.793344,0.792854,0.792502,0.79221,0.79198,0.791956,0.791999,0.792971,0.793989,0.795119
0.870233,0.870495,0.871063,0.871925,0.872339,0.872598,0.87224,0.871886,0.871549,0.871186,0.870794,0.870126,0.869373,0.868522,0.867637,0.866678,0.865749,0.86485,0.863904,0.862953,0.862037,0.861146,0.860359,0.85959,0.85884,0.858147,0.857479,0.856906,0.856335,0.855789,0.855234,0.85467,0.853267,0.851599,0.847623,0.843701,0.840063,0.8375,0.836025,0.836021,0.836507,0.836997,0.837294,0.836997,0.83653,0.835874,0.835321,0.834809,0.834625,0.834435,0.834231,0.833765,0.83304,0.832422,0.831846,0.83088,0.829631,0.827572,0.824991,0.821899,0.819642,0.817683,0.81736,0.8173,0.818009,0.819449,0.82161,0.824418,0.827419,0.829568,0.831434,0.832415,0.833186,0.833739,0.834107,0.83441,0.834837,0.835311,0.835913,0.836582,0.837321,0.838191,0.839098,0.840128,0.841157,0.842153,0.843062,0.843886,0.844912,0.845994,0.848375,0.850816,0.853368,0.855518,0.857267,0.858506,0.859562,0.86006,0.860423,0.860372,0.860068,0.859511,0.858384,0.857074,0.853147,0.847757,0.838158,0.828594,0.819128,0.81368,0.809618,0.810205,0.81113,0.813004,0.814143,0.814519,0.813718,0.812528,0.811654,0.810906,0.810546,0.810299,0.810166,0.810095,0.810045,0.810096,0.810148,0.810202,0.810248,0.810285,0.810325,0.810366,0.810363,0.810395,0.810532,0.810811,0.811233,0.811535,0.811795,0.811472,0.811176,0.810973,0.811411,0.812488,0.813026,0.813378,0.812763,0.812136,0.811493,0.810856,0.810219,0.809731,0.809298,0.80911,0.809017,0.809209,0.809631,0.810281,0.811119,0.812012,0.813098,0.814406,0.816339,0.818546,0.821023,0.823401,0.825726,0.827769,0.829945,0.832458,0.83479,0.836938,0.838364,0.839534,0.840566,0.841625,0.842734,0.843639,0.844339,0.844756,0.845075,0.844949,0.844744,0.844311,0.843757,0.843082,0.842137,0.841111,0.839221,0.837018,0.833942,0.830944,0.828029,0.826025,0.824345,0.823118,0.821449,0.818501,0.814594,0.809763,0.808092,0.807494,0.811602,0.815298,0.81765,0.819093,0.819604,0.819683,0.819619,0.819578,0.819529,0.819455,0.819342,0.819188,0.81915,0.819151,0.819323,0.819526,0.819814,0.820127,0.820464,0.821041,0.821693,0.822317,0.82286,0.823146,0.823266,0.823219,0.823185,0.823155,0.823238,0.823327,0.823428,0.823579,0.82378,0.823977,0.82417,0.824438,0.824696,0.82492,0.825086,0.825194,0.825209,0.825192,0.825052,0.824859,0.824518,0.824117,0.823658,0.823153,0.822638,0.822037,0.821421,0.820777,0.820112,0.819426,0.818794,0.818185,0.817558,0.816926,0.816299,0.815649,0.814978,0.81427,0.813556,0.812859,0.812179,0.811567,0.811,0.810478,0.809988,0.809513,0.809131,0.808775,0.808509,0.808283,0.808098,0.807932,0.807773,0.80763,0.807517,0.807492,0.807521,0.807605,0.807722,0.80785,0.807937,0.808018,0.808078,0.808134,0.808185,0.80832,0.808482,0.808795,0.809116,0.809449,0.80963,0.809659,0.809351,0.808932,0.808098,0.807196,0.806119,0.805004,0.803849,0.802432,0.80094,0.799096,0.797233,0.79537,0.793562,0.791807,0.790165,0.788575,0.787168,0.785839,0.784779,0.783831,0.782995,0.782315,0.781695,0.781271,0.780867,0.780538,0.780238,0.77997,0.779837,0.779751,0.779811,0.779908,0.780114,0.780328,0.780549,0.780702,0.780831,0.78094,0.781091,0.781363,0.781754,0.782267,0.782958,0.783704,0.784751,0.785851,0.787077,0.78834,0.789639,0.790871,0.792068,0.792985,0.793831,0.794444,0.794917,0.79525,0.795399,0.795485,0.795378,0.795244,0.795031,0.794726,0.794328,0.793829,0.793299,0.792761,0.792249,0.791831,0.791443,0.791087,0.790891,0.790751,0.791327,0.792052,0.793206
0.867103,0.867733,0.868503,0.869413,0.869848,0.87012,0.869899,0.869674,0.869443,0.869157,0.868816,0.868231,0.867569,0.866838,0.866093,0.865325,0.864508,0.863642,0.862599,0.861506,0.860545,0.859625,0.858848,0.858086,0.857341,0.856635,0.855948,0.855297,0.85463,0.853929,0.853046,0.851981,0.849743,0.847125,0.841746,0.836728,0.832904,0.830504,0.829529,0.830216,0.831461,0.83284,0.833968,0.834332,0.834328,0.833955,0.833554,0.833148,0.833158,0.833107,0.832876,0.832235,0.831185,0.830118,0.829051,0.827801,0.826415,0.824665,0.822651,0.820373,0.818878,0.817667,0.817811,0.818177,0.8192,0.820624,0.822449,0.824643,0.826937,0.828742,0.830391,0.831526,0.832448,0.833155,0.833515,0.833755,0.834146,0.834576,0.835107,0.8357,0.836357,0.837136,0.837948,0.838905,0.839868,0.840825,0.841756,0.84266,0.843918,0.845284,0.847624,0.849984,0.852337,0.854322,0.855938,0.857132,0.858172,0.858662,0.858994,0.858847,0.858369,0.857559,0.856146,0.854541,0.847889,0.839988,0.828544,0.819017,0.811408,0.808405,0.807,0.808825,0.810645,0.812406,0.813309,0.813356,0.812609,0.811599,0.810943,0.810372,0.810071,0.80985,0.809707,0.80963,0.809575,0.809619,0.809663,0.809704,0.809735,0.809753,0.809744,0.809726,0.809656,0.809626,0.809715,0.809872,0.810097,0.809862,0.80947,0.80848,0.807722,0.807673,0.808539,0.810322,0.811137,0.811623,0.811038,0.810481,0.810022,0.809572,0.809132,0.808786,0.808476,0.808339,0.808289,0.808501,0.808915,0.809531,0.810338,0.811201,0.812237,0.813447,0.815138,0.817011,0.819065,0.821271,0.823506,0.825679,0.827974,0.830573,0.832934,0.835059,0.83632,0.83728,0.838598,0.839918,0.841212,0.842135,0.842687,0.842898,0.842991,0.842941,0.842832,0.84255,0.842126,0.841558,0.84065,0.839638,0.83787,0.835759,0.832686,0.829738,0.826916,0.82498,0.82336,0.821912,0.819959,0.816554,0.812251,0.807049,0.80553,0.805267,0.809586,0.813504,0.816116,0.817792,0.818531,0.818732,0.81875,0.81874,0.818727,0.818709,0.818642,0.818525,0.818473,0.818443,0.818557,0.818698,0.818918,0.819183,0.819493,0.819986,0.820535,0.821035,0.821478,0.821741,0.821903,0.821966,0.822012,0.822054,0.822217,0.822384,0.822562,0.822776,0.823026,0.823275,0.82352,0.823824,0.824109,0.824327,0.824498,0.824622,0.824631,0.824601,0.824431,0.824221,0.823898,0.823521,0.823091,0.822617,0.822134,0.821555,0.820957,0.820317,0.819649,0.818954,0.818325,0.817723,0.817193,0.816649,0.816079,0.815431,0.814704,0.813916,0.813115,0.812388,0.811686,0.811079,0.810529,0.810036,0.809592,0.80917,0.808824,0.808499,0.808241,0.80801,0.807806,0.807611,0.807419,0.807232,0.80707,0.806987,0.806982,0.807054,0.807185,0.807335,0.807421,0.807507,0.807586,0.807669,0.807757,0.807904,0.80807,0.80834,0.808611,0.80888,0.809006,0.808989,0.808663,0.808236,0.807398,0.806495,0.805427,0.804308,0.80314,0.801717,0.800222,0.798409,0.796588,0.794796,0.79304,0.791322,0.789727,0.788188,0.786827,0.785529,0.78445,0.783467,0.782582,0.781886,0.781261,0.780906,0.780569,0.780293,0.780024,0.779762,0.779575,0.779414,0.779401,0.779452,0.779693,0.780002,0.780379,0.780614,0.7808,0.780835,0.780906,0.781084,0.781451,0.782007,0.782727,0.783496,0.784336,0.785225,0.786229,0.787353,0.788598,0.789986,0.791411,0.792465,0.793417,0.794047,0.794504,0.79479,0.794883,0.794911,0.794792,0.794661,0.794498,0.794217,0.793817,0.793307,0.792764,0.792219,0.791694,0.791247,0.790802,0.790361,0.790035,0.78975,0.789974,0.790379,0.791303
0.864238,0.865173,0.866099,0.867018,0.867467,0.867753,0.867675,0.867578,0.867433,0.8672,0.866881,0.866371,0.865802,0.865213,0.864631,0.864097,0.863406,0.862563,0.861392,0.86012,0.859123,0.85818,0.857422,0.856674,0.855936,0.855205,0.854481,0.853724,0.852922,0.852003,0.850694,0.848982,0.845796,0.842129,0.835382,0.829349,0.825548,0.823499,0.823209,0.824589,0.826529,0.828757,0.830679,0.83168,0.832097,0.831942,0.831658,0.831335,0.831553,0.831648,0.83138,0.830558,0.829175,0.827637,0.826052,0.824617,0.823252,0.822136,0.821019,0.819926,0.81932,0.818896,0.819328,0.819951,0.821139,0.822426,0.823807,0.825297,0.826799,0.828203,0.829579,0.830819,0.831842,0.832651,0.832967,0.833113,0.833474,0.833863,0.834321,0.834839,0.835414,0.836112,0.836843,0.837753,0.838686,0.839664,0.840679,0.841735,0.843235,0.844874,0.847047,0.84921,0.851276,0.853063,0.854568,0.855745,0.8568,0.857279,0.857575,0.857319,0.856639,0.85553,0.853789,0.851847,0.842149,0.831647,0.818909,0.810196,0.80553,0.805425,0.806902,0.809464,0.811664,0.812748,0.813005,0.812419,0.811598,0.810705,0.81024,0.809834,0.809622,0.809454,0.809332,0.809262,0.809211,0.80923,0.809249,0.809264,0.809267,0.809257,0.809183,0.809088,0.808947,0.80885,0.808885,0.8089,0.808889,0.808017,0.806851,0.80514,0.803915,0.804144,0.805552,0.808153,0.809293,0.809935,0.809417,0.808959,0.808697,0.808438,0.808188,0.807965,0.807756,0.807686,0.80769,0.807918,0.80831,0.808866,0.809627,0.810449,0.811391,0.812433,0.813734,0.815135,0.816625,0.818644,0.820819,0.823236,0.825728,0.828386,0.830759,0.832848,0.833943,0.834692,0.836415,0.838095,0.839623,0.840574,0.840949,0.840907,0.84072,0.840784,0.840811,0.840732,0.840467,0.84002,0.839146,0.838138,0.836493,0.834493,0.831495,0.828667,0.826014,0.824198,0.822683,0.821011,0.818829,0.815179,0.810799,0.805685,0.804548,0.804766,0.808752,0.8124,0.81493,0.816639,0.81753,0.817827,0.817921,0.81793,0.817948,0.81799,0.817972,0.817895,0.817823,0.817754,0.817803,0.817876,0.818016,0.818221,0.81849,0.818844,0.819222,0.819503,0.819775,0.820002,0.820241,0.820494,0.820693,0.820876,0.821157,0.821437,0.821714,0.822003,0.822306,0.822612,0.822919,0.823244,0.823539,0.823735,0.823906,0.824052,0.824049,0.823994,0.823786,0.823557,0.823269,0.822929,0.822536,0.822102,0.821658,0.821098,0.820514,0.819877,0.819209,0.81851,0.817883,0.817285,0.816883,0.81645,0.815943,0.815288,0.814483,0.813593,0.812681,0.81191,0.811177,0.81058,0.810053,0.809598,0.809208,0.808844,0.808532,0.808233,0.807983,0.807747,0.807524,0.807303,0.807084,0.806855,0.806649,0.806519,0.806492,0.806568,0.806706,0.806863,0.806943,0.807026,0.80712,0.807224,0.807336,0.807493,0.807664,0.807909,0.80815,0.808375,0.808456,0.808391,0.808045,0.807606,0.806766,0.805864,0.804807,0.803679,0.802479,0.801047,0.79955,0.79778,0.796011,0.794296,0.792589,0.790892,0.789321,0.787808,0.78647,0.785172,0.784029,0.782979,0.782019,0.781316,0.780706,0.780466,0.780242,0.780077,0.779877,0.779642,0.779374,0.779096,0.778974,0.778949,0.779212,0.779622,0.780183,0.780518,0.780775,0.780729,0.780717,0.780803,0.781159,0.781785,0.782559,0.783375,0.783953,0.784576,0.785306,0.786261,0.787437,0.789021,0.790732,0.79198,0.793089,0.793764,0.794209,0.794423,0.794433,0.794372,0.794232,0.794099,0.793988,0.79373,0.793325,0.792803,0.792245,0.791692,0.791158,0.790694,0.790206,0.789693,0.789251,0.788835,0.788724,0.788799,0.789406
0.862317,0.863295,0.864223,0.865103,0.865583,0.865925,0.865952,0.865948,0.865854,0.865669,0.865395,0.864993,0.864553,0.864088,0.863608,0.8631,0.862358,0.861379,0.860107,0.858749,0.857823,0.856957,0.856298,0.855603,0.854873,0.854111,0.853344,0.852439,0.851491,0.850436,0.849042,0.847308,0.843825,0.839783,0.833289,0.827592,0.824432,0.823087,0.823578,0.825254,0.827312,0.82903,0.830459,0.830974,0.831094,0.830805,0.830469,0.830119,0.830256,0.830212,0.829627,0.828456,0.826688,0.82502,0.823402,0.822365,0.821392,0.820647,0.819871,0.819069,0.818652,0.818368,0.818821,0.819454,0.820602,0.821797,0.823039,0.824512,0.826051,0.827732,0.829366,0.830831,0.83181,0.832301,0.832363,0.832278,0.832625,0.833013,0.833511,0.83403,0.834571,0.835222,0.835904,0.83677,0.837671,0.838646,0.839694,0.840814,0.842295,0.843883,0.845847,0.847825,0.849785,0.851539,0.853088,0.854354,0.855514,0.856004,0.856283,0.855933,0.855062,0.853667,0.851546,0.849197,0.83992,0.830261,0.819748,0.812846,0.809613,0.809505,0.810436,0.811587,0.812483,0.812553,0.812219,0.811467,0.810745,0.810041,0.809704,0.809412,0.809266,0.809143,0.809043,0.80898,0.808929,0.80893,0.80893,0.808931,0.808921,0.808901,0.808818,0.808713,0.808564,0.808441,0.808402,0.808295,0.808117,0.807025,0.805634,0.80389,0.802664,0.803016,0.804449,0.806958,0.807985,0.808503,0.808086,0.807744,0.807635,0.807525,0.807417,0.80731,0.807205,0.807211,0.807272,0.8075,0.807855,0.808335,0.80897,0.80965,0.810347,0.811102,0.812003,0.812954,0.813943,0.815407,0.817012,0.818774,0.820468,0.821899,0.823001,0.823731,0.824612,0.82554,0.830042,0.834166,0.837133,0.838567,0.838486,0.838196,0.837838,0.838458,0.838981,0.839217,0.839128,0.83872,0.837806,0.83673,0.835119,0.833257,0.830698,0.828273,0.825994,0.824222,0.822635,0.820713,0.818468,0.815318,0.811913,0.808287,0.807644,0.808008,0.8106,0.813011,0.81478,0.816022,0.81672,0.817022,0.817188,0.817258,0.817329,0.817404,0.817421,0.817382,0.817329,0.81727,0.817261,0.817271,0.817334,0.817438,0.817582,0.817761,0.81795,0.818094,0.818268,0.818523,0.818844,0.819233,0.819574,0.819898,0.820268,0.820645,0.821033,0.821415,0.821793,0.82214,0.822473,0.822768,0.823034,0.823203,0.823337,0.823434,0.823406,0.823335,0.823173,0.822987,0.822742,0.822444,0.822095,0.821685,0.821258,0.820706,0.820134,0.819515,0.81887,0.818201,0.817509,0.816814,0.816304,0.8158,0.815323,0.81469,0.813902,0.813007,0.812084,0.811363,0.810683,0.810149,0.809684,0.80929,0.808932,0.80859,0.808282,0.807985,0.80773,0.807491,0.807266,0.807049,0.806836,0.806625,0.806432,0.806299,0.806254,0.806296,0.806392,0.806505,0.806585,0.806672,0.806777,0.806895,0.807025,0.807187,0.807357,0.807576,0.807788,0.807975,0.808026,0.807941,0.807567,0.8071,0.806253,0.805348,0.804296,0.803159,0.801936,0.80051,0.799029,0.797338,0.795636,0.793949,0.792262,0.790576,0.789027,0.787538,0.786173,0.784855,0.783712,0.782707,0.781843,0.781286,0.780839,0.780623,0.780413,0.78023,0.780018,0.779774,0.779419,0.779028,0.778732,0.778562,0.778767,0.779183,0.779807,0.780191,0.780492,0.780407,0.780359,0.780419,0.780809,0.78153,0.782438,0.783403,0.783662,0.783903,0.784078,0.784615,0.7855,0.787193,0.789143,0.790823,0.792309,0.793193,0.793758,0.794009,0.794018,0.793946,0.793811,0.793675,0.79354,0.793274,0.792879,0.792361,0.791808,0.791272,0.790748,0.790273,0.789757,0.789198,0.788681,0.788181,0.78792,0.787812,0.788158
0.860624,0.861578,0.862468,0.863293,0.863811,0.864221,0.864344,0.864425,0.864373,0.864236,0.864012,0.863729,0.863427,0.863082,0.862688,0.862156,0.861311,0.860155,0.85879,0.857368,0.85654,0.855781,0.855241,0.854611,0.853889,0.853094,0.852282,0.851219,0.850119,0.848948,0.847563,0.845965,0.842357,0.838109,0.832276,0.827292,0.824929,0.824407,0.825705,0.827569,0.829602,0.830466,0.831041,0.830787,0.830398,0.829888,0.829452,0.829047,0.829031,0.828768,0.827795,0.826219,0.82405,0.822348,0.820818,0.820328,0.819854,0.819414,0.818831,0.818098,0.817681,0.817373,0.817783,0.818357,0.819412,0.820527,0.821705,0.823351,0.825136,0.827264,0.829308,0.831027,0.83192,0.831989,0.831736,0.831385,0.831721,0.832119,0.832685,0.833227,0.833744,0.834358,0.835,0.835823,0.836688,0.837656,0.838722,0.839886,0.841275,0.842729,0.844475,0.846268,0.848166,0.849932,0.851565,0.852951,0.854239,0.854743,0.855011,0.85457,0.853508,0.85183,0.849308,0.846533,0.838548,0.830684,0.823285,0.818526,0.816352,0.815432,0.814957,0.814152,0.813259,0.812228,0.811303,0.8105,0.809925,0.809431,0.809205,0.809016,0.808931,0.80885,0.808774,0.808717,0.808666,0.808649,0.808634,0.808623,0.808605,0.808579,0.8085,0.808403,0.808262,0.808126,0.808006,0.80778,0.80745,0.806251,0.804772,0.803167,0.80207,0.802508,0.803819,0.806007,0.806801,0.807124,0.806818,0.806597,0.806631,0.806661,0.806684,0.806693,0.806693,0.806777,0.806898,0.807122,0.807434,0.807834,0.808319,0.808831,0.809244,0.809677,0.810174,0.810667,0.811169,0.811969,0.812875,0.813754,0.814369,0.814245,0.813679,0.812715,0.813374,0.814577,0.822465,0.829645,0.834358,0.836417,0.835808,0.83527,0.834768,0.836056,0.837183,0.837763,0.837861,0.837471,0.836495,0.835332,0.833733,0.832017,0.82999,0.828057,0.826207,0.824455,0.822752,0.820572,0.818305,0.815842,0.813737,0.811957,0.811835,0.812262,0.813189,0.814077,0.814914,0.815533,0.815952,0.816235,0.816472,0.816614,0.816747,0.816847,0.816897,0.816896,0.81687,0.816836,0.81677,0.816716,0.816703,0.816694,0.816689,0.816682,0.816676,0.816703,0.816797,0.817097,0.817504,0.818016,0.818498,0.818963,0.819416,0.819886,0.820388,0.82087,0.82133,0.821712,0.822063,0.822316,0.822542,0.822682,0.822767,0.822796,0.82274,0.822656,0.82256,0.822437,0.822235,0.821983,0.82168,0.82129,0.820874,0.820328,0.819766,0.819169,0.818556,0.817925,0.817148,0.816331,0.815653,0.815025,0.814569,0.813968,0.813222,0.812348,0.811438,0.81079,0.810187,0.80973,0.809339,0.809013,0.808682,0.808353,0.80804,0.807738,0.807477,0.807235,0.807012,0.806807,0.806609,0.806431,0.806265,0.806143,0.80608,0.806077,0.806118,0.806173,0.806256,0.806347,0.806463,0.806594,0.80674,0.806905,0.807074,0.807267,0.80745,0.807599,0.807624,0.807525,0.807122,0.806622,0.805766,0.804856,0.803809,0.802663,0.801419,0.800003,0.798543,0.79694,0.79531,0.793638,0.791964,0.790287,0.788759,0.787295,0.785891,0.784546,0.783418,0.782492,0.781766,0.781399,0.781153,0.780938,0.780716,0.780483,0.780235,0.779974,0.779528,0.779025,0.778538,0.778201,0.77833,0.778723,0.779381,0.779802,0.780138,0.780026,0.779954,0.780004,0.780441,0.781263,0.782331,0.783469,0.783396,0.783219,0.782765,0.782801,0.783341,0.785121,0.7873,0.789472,0.791402,0.792538,0.793265,0.793578,0.793609,0.793544,0.793421,0.793283,0.793105,0.792823,0.792439,0.791932,0.791388,0.790875,0.790367,0.789883,0.789342,0.788743,0.788161,0.78759,0.787225,0.786972,0.787069
0.85938,0.860299,0.861153,0.861942,0.862476,0.862921,0.863102,0.863229,0.863196,0.863069,0.86285,0.862568,0.862268,0.861859,0.861388,0.860748,0.85986,0.858726,0.857531,0.856324,0.855558,0.854854,0.854355,0.853768,0.853095,0.852303,0.851479,0.850381,0.849264,0.848118,0.846787,0.845269,0.842308,0.838883,0.834349,0.830469,0.828613,0.828021,0.828693,0.829568,0.830515,0.830656,0.830668,0.830304,0.829929,0.829543,0.829174,0.828813,0.828164,0.827278,0.825726,0.823995,0.822084,0.820862,0.819877,0.81939,0.818796,0.817913,0.817017,0.816107,0.8157,0.815465,0.816069,0.816694,0.817371,0.817946,0.818421,0.819913,0.821737,0.824454,0.826954,0.828734,0.829526,0.82933,0.829267,0.829249,0.830267,0.8312,0.831841,0.832424,0.83295,0.833599,0.834284,0.835048,0.835849,0.836743,0.837777,0.838952,0.840331,0.841767,0.843398,0.845094,0.846938,0.848721,0.850441,0.851923,0.85331,0.854005,0.854369,0.853743,0.852321,0.850104,0.846674,0.842876,0.836399,0.830169,0.824795,0.820938,0.818598,0.816915,0.815474,0.813964,0.812523,0.811336,0.81041,0.809746,0.809318,0.808971,0.808824,0.808702,0.808659,0.80861,0.808555,0.808506,0.80846,0.808438,0.808417,0.808397,0.80837,0.808336,0.808248,0.808142,0.807982,0.807814,0.807626,0.807341,0.806958,0.805953,0.804746,0.803513,0.802654,0.802924,0.803811,0.805315,0.80582,0.80599,0.805805,0.805697,0.805822,0.80596,0.806109,0.806202,0.806273,0.806385,0.806525,0.806746,0.807019,0.807346,0.80773,0.80813,0.808443,0.80875,0.809038,0.808861,0.808221,0.806958,0.805516,0.803934,0.802315,0.800695,0.798979,0.797169,0.798152,0.800063,0.811106,0.821437,0.829274,0.833531,0.834208,0.834332,0.834258,0.835407,0.836381,0.836816,0.83684,0.836453,0.835566,0.834517,0.832928,0.831241,0.829308,0.827393,0.825495,0.823669,0.821885,0.819916,0.817959,0.816076,0.814589,0.813499,0.813282,0.81336,0.813652,0.813997,0.814501,0.814944,0.815326,0.815642,0.815932,0.816126,0.816303,0.816423,0.816493,0.816513,0.8165,0.816475,0.816386,0.816302,0.816235,0.816167,0.816097,0.81602,0.81594,0.815941,0.816024,0.816352,0.816768,0.817274,0.817781,0.818284,0.818803,0.819339,0.819912,0.820439,0.82092,0.821313,0.821674,0.821903,0.822093,0.822166,0.822188,0.822158,0.822127,0.822096,0.822069,0.822009,0.821849,0.821626,0.821338,0.820956,0.820545,0.820029,0.819497,0.818935,0.818322,0.817659,0.816707,0.815668,0.814419,0.813333,0.812771,0.812275,0.811845,0.811318,0.810761,0.810282,0.809827,0.809447,0.809101,0.80879,0.808474,0.808159,0.807842,0.807537,0.807272,0.807028,0.806805,0.806603,0.806411,0.806247,0.806095,0.805981,0.805913,0.80589,0.805911,0.805946,0.806025,0.806115,0.806234,0.806368,0.806518,0.806676,0.806835,0.806992,0.807137,0.807243,0.807231,0.807103,0.806668,0.806134,0.805292,0.804396,0.803361,0.802234,0.801014,0.799632,0.798208,0.796634,0.795026,0.79336,0.791688,0.79001,0.788502,0.787064,0.785673,0.784344,0.783232,0.782342,0.781676,0.781217,0.780833,0.780532,0.780231,0.779937,0.779734,0.77962,0.779463,0.779291,0.778865,0.77843,0.777984,0.777654,0.777438,0.777422,0.777481,0.777932,0.778443,0.779097,0.779836,0.780658,0.781711,0.782832,0.782357,0.781628,0.780187,0.779194,0.778648,0.779901,0.781758,0.78477,0.787699,0.790265,0.791996,0.792893,0.793143,0.793169,0.793061,0.792933,0.792749,0.792462,0.792074,0.791582,0.791059,0.790552,0.790046,0.789551,0.789002,0.788397,0.78779,0.787188,0.786782,0.786462,0.78641
0.858226,0.859108,0.859927,0.860682,0.86123,0.861703,0.861933,0.8621,0.862079,0.861956,0.861732,0.861429,0.861102,0.86059,0.86001,0.859245,0.858327,0.857257,0.856281,0.855348,0.854635,0.853977,0.853503,0.852956,0.852338,0.851558,0.850729,0.849622,0.848512,0.847423,0.846153,0.844704,0.842536,0.840151,0.837048,0.83435,0.832936,0.832105,0.83185,0.831513,0.83115,0.830598,0.8301,0.829766,0.829503,0.829314,0.829043,0.828747,0.827367,0.825778,0.82361,0.82177,0.820257,0.819613,0.819268,0.818668,0.817838,0.816354,0.815048,0.81391,0.813514,0.813373,0.814221,0.814918,0.815156,0.815102,0.81474,0.816016,0.817837,0.821172,0.824138,0.825936,0.826624,0.826198,0.82642,0.826862,0.828706,0.830276,0.830993,0.831621,0.832162,0.832861,0.833607,0.834307,0.835038,0.835844,0.836837,0.838016,0.839402,0.840844,0.842383,0.843997,0.84579,0.847589,0.849397,0.85097,0.85245,0.853372,0.853855,0.853024,0.851209,0.848399,0.843964,0.83902,0.834091,0.82947,0.825882,0.822698,0.819933,0.817493,0.815183,0.813235,0.811479,0.810337,0.809521,0.809035,0.808754,0.808543,0.808466,0.808406,0.808401,0.808381,0.808346,0.808307,0.808266,0.808241,0.808216,0.808188,0.808153,0.808109,0.808009,0.807891,0.807706,0.807502,0.80725,0.806917,0.806502,0.805747,0.804887,0.804076,0.803476,0.803526,0.80393,0.804674,0.804879,0.804905,0.804843,0.804848,0.805052,0.805291,0.805566,0.805737,0.805871,0.806,0.806153,0.806369,0.806605,0.806861,0.807152,0.807452,0.807704,0.807924,0.808043,0.807153,0.805235,0.801639,0.797507,0.793136,0.78906,0.785959,0.783186,0.780713,0.782123,0.784832,0.798972,0.812479,0.823726,0.830488,0.832833,0.833789,0.834265,0.835104,0.835782,0.835968,0.835869,0.835483,0.834712,0.833819,0.83224,0.830561,0.828629,0.826641,0.824596,0.822678,0.82082,0.819161,0.817576,0.816249,0.815255,0.814607,0.814178,0.813822,0.813698,0.813682,0.813982,0.814332,0.814729,0.815087,0.815428,0.815669,0.815887,0.816026,0.816114,0.816152,0.816147,0.816129,0.816024,0.815916,0.815801,0.815685,0.815566,0.81544,0.815313,0.815307,0.815393,0.815744,0.816155,0.816627,0.817138,0.817657,0.818238,0.818836,0.81947,0.820032,0.820521,0.820921,0.821289,0.821497,0.821653,0.82165,0.821607,0.82152,0.821525,0.82156,0.821603,0.821605,0.821487,0.821289,0.821012,0.820635,0.820228,0.819745,0.819249,0.818723,0.818105,0.817395,0.81625,0.814969,0.813066,0.811457,0.810762,0.810385,0.810328,0.810212,0.810076,0.809788,0.809493,0.809191,0.808886,0.808578,0.808274,0.807974,0.807653,0.807344,0.807077,0.806832,0.806607,0.806408,0.806219,0.806066,0.805923,0.80582,0.805748,0.80571,0.805718,0.805741,0.805814,0.8059,0.806022,0.806158,0.806308,0.806458,0.806605,0.806724,0.80683,0.80689,0.80684,0.806681,0.806212,0.805644,0.804821,0.803942,0.802921,0.801818,0.800631,0.799288,0.797904,0.796346,0.794751,0.793088,0.791416,0.789736,0.788247,0.786836,0.78547,0.784163,0.783067,0.782206,0.781582,0.780978,0.780385,0.779981,0.779587,0.779231,0.779086,0.779155,0.77936,0.779611,0.7793,0.778779,0.777654,0.776464,0.775186,0.774643,0.774358,0.775497,0.776707,0.778094,0.779183,0.779985,0.780989,0.782053,0.781163,0.779856,0.777355,0.775226,0.77344,0.774051,0.775469,0.779392,0.783427,0.78767,0.79057,0.792159,0.792665,0.792799,0.792706,0.79259,0.792409,0.79212,0.791724,0.791247,0.790748,0.790244,0.789737,0.789232,0.788677,0.788074,0.78745,0.786824,0.786391,0.786019,0.785838
0.857536,0.858403,0.859214,0.859969,0.860539,0.861042,0.861287,0.861466,0.861444,0.861276,0.860963,0.860567,0.860146,0.859562,0.858936,0.858202,0.857345,0.856363,0.85555,0.854802,0.854201,0.853631,0.853169,0.852623,0.851992,0.851201,0.850363,0.849302,0.848203,0.847014,0.845636,0.844071,0.84208,0.839964,0.83761,0.835485,0.834095,0.832967,0.832108,0.831314,0.830544,0.829935,0.829419,0.829199,0.829052,0.828975,0.828653,0.828252,0.826508,0.824659,0.822551,0.820984,0.819949,0.81936,0.81893,0.81784,0.816594,0.814917,0.813582,0.812589,0.812366,0.812406,0.813387,0.814122,0.814099,0.81369,0.812903,0.813447,0.81443,0.816113,0.817498,0.817923,0.818267,0.818539,0.82107,0.824342,0.827377,0.829853,0.830598,0.831227,0.83174,0.832456,0.833235,0.833897,0.834598,0.835393,0.836387,0.837581,0.838968,0.840407,0.841843,0.843357,0.845057,0.846853,0.848745,0.850343,0.851828,0.851903,0.851409,0.8492,0.846187,0.842405,0.838417,0.834388,0.831129,0.827923,0.824975,0.822126,0.819368,0.816849,0.814434,0.812526,0.810824,0.80978,0.80907,0.80869,0.808483,0.808337,0.808286,0.80825,0.808259,0.808252,0.808229,0.808197,0.808161,0.808138,0.808112,0.80808,0.808037,0.807984,0.807867,0.807728,0.807504,0.807261,0.806968,0.806615,0.806202,0.805581,0.804896,0.804303,0.803834,0.803743,0.80387,0.804223,0.804333,0.804358,0.804414,0.804516,0.804758,0.805024,0.805314,0.805488,0.805623,0.805764,0.805928,0.806151,0.806378,0.80661,0.806865,0.807127,0.807482,0.807709,0.80754,0.805846,0.802648,0.797658,0.792099,0.787547,0.783607,0.781628,0.780333,0.779673,0.782124,0.785615,0.798998,0.811848,0.822745,0.829609,0.832449,0.833666,0.834329,0.834854,0.835269,0.835339,0.83521,0.834881,0.834283,0.833599,0.83215,0.830465,0.828117,0.825699,0.823226,0.821281,0.819528,0.818294,0.817085,0.81599,0.815108,0.81444,0.813884,0.81337,0.813292,0.813315,0.813636,0.814,0.814407,0.814787,0.815156,0.815426,0.815664,0.815799,0.815869,0.815875,0.815824,0.815754,0.815666,0.815584,0.815522,0.815437,0.815329,0.815205,0.815077,0.815102,0.815201,0.815513,0.815898,0.816356,0.816868,0.817394,0.817998,0.818611,0.819236,0.819788,0.820267,0.820664,0.821029,0.821227,0.821373,0.82136,0.821289,0.821159,0.821122,0.821117,0.821207,0.821262,0.821215,0.821064,0.820809,0.820445,0.820047,0.819594,0.819126,0.81863,0.818031,0.817329,0.816056,0.814603,0.812422,0.810584,0.809816,0.809499,0.80963,0.809723,0.809804,0.809575,0.809331,0.809045,0.808755,0.808458,0.808157,0.807857,0.80753,0.807218,0.806958,0.80672,0.806503,0.806304,0.806114,0.805956,0.805808,0.805698,0.805622,0.805579,0.805588,0.805615,0.805692,0.80578,0.8059,0.806033,0.806179,0.806318,0.806454,0.806548,0.806626,0.80665,0.806562,0.806363,0.805851,0.805239,0.804402,0.803531,0.802583,0.801548,0.800425,0.799111,0.797746,0.796181,0.794583,0.792935,0.791274,0.789599,0.788092,0.786656,0.785511,0.784432,0.783585,0.782538,0.781297,0.779212,0.776858,0.77474,0.772988,0.772369,0.772468,0.773279,0.775172,0.777417,0.777944,0.777768,0.775472,0.772831,0.769886,0.76871,0.768124,0.770257,0.772599,0.775534,0.777805,0.779376,0.780477,0.781418,0.780598,0.779292,0.776574,0.773823,0.771053,0.770522,0.770743,0.774594,0.778939,0.78467,0.788968,0.791795,0.792639,0.792821,0.792664,0.792487,0.792252,0.791936,0.79154,0.791069,0.790577,0.790076,0.789568,0.789053,0.788496,0.787899,0.787294,0.786693,0.786232,0.785825,0.785586
